ply
format ascii 1.0
comment Created by CloudCompare v2.10.2 (Zephyrus)
comment Created 02/05/2021 17:05
obj_info Generated by CloudCompare!
element vertex 683
property float x
property float y
property float z
property uchar red
property uchar green
property uchar blue
property float nx
property float ny
property float nz
end_header
0.765818 -0.543354 -7.840817 228 219 193 0.293579 -0.837244 -0.461339 
-0.183861 -0.069872 -7.037114 138 185 206 -0.921765 0.288141 0.259470 
0.193398 0.278369 -8.519906 171 123 148 0.312842 0.825338 -0.470050 
0.412711 0.563976 -9.286758 199 163 136 0.954637 0.150452 0.256967 
0.394743 -0.069339 -8.883478 186 154 118 0.387561 0.674522 0.628344 
0.384012 0.393255 -7.460914 119 156 142 0.266540 0.860542 0.434079 
0.655816 -0.465802 -7.709865 50 63 88 0.612020 0.006877 0.790812 
-0.670765 0.160883 -9.621105 51 81 77 0.421345 0.241411 0.874179 
-0.597404 0.251792 -8.415134 57 78 88 -0.079478 0.775996 0.625710 
0.827289 -0.682247 -9.206967 212 176 145 0.905609 -0.421182 -0.049788 
-0.677365 -0.000400 -8.496893 105 118 141 -0.784014 -0.211021 0.583774 
0.761964 0.175530 -7.682063 146 141 166 0.538933 0.786938 -0.300467 
-0.453322 0.437206 -8.259290 100 86 93 0.045018 0.882626 -0.467915 
-0.431809 -1.058404 -8.563020 238 199 169 -0.478312 -0.736502 -0.478312 
1.025656 -0.499372 -9.409396 201 176 145 0.764860 0.319093 0.559615 
-0.107719 0.454072 -8.334798 57 88 83 -0.327513 0.944309 -0.031859 
0.619450 0.265863 -7.404622 134 130 160 -0.074799 0.853843 0.515128 
0.437766 -0.137864 -8.558348 90 178 204 -0.599205 -0.798466 -0.058355 
-0.027640 -0.795437 -8.637522 229 191 159 0.835376 -0.280525 -0.472708 
-0.226562 -0.562626 -8.942126 222 184 123 -0.207825 -0.966836 -0.148446 
-0.430834 0.435876 -7.887832 79 88 91 0.997059 0.075390 0.013804 
-0.502022 -0.557685 -8.808763 182 141 103 -0.595467 0.369091 -0.713576 
-0.645800 -0.305382 -7.069022 175 107 125 0.402922 0.784807 0.470884 
-0.178109 0.157962 -8.912775 143 92 80 -0.785874 -0.530824 0.317219 
0.956393 -0.445211 -9.338425 206 166 134 0.937876 0.286765 0.195333 
-0.729041 -0.647671 -8.768261 174 146 117 -0.548596 0.568852 -0.612740 
0.303207 -0.380543 -7.082410 176 118 129 0.461208 -0.168377 0.871170 
0.058532 -0.881137 -9.511617 224 197 175 -0.327237 -0.898792 -0.291700 
-0.799837 0.266882 -9.585629 66 94 85 -0.970538 0.180298 0.159838 
0.431727 -0.089640 -8.567011 68 139 160 0.678298 0.362963 -0.638881 
-0.312002 -0.290603 -9.164346 196 149 121 -0.820734 -0.530344 0.212443 
-0.842875 -1.091943 -8.208266 221 182 154 -0.740809 0.649162 0.172601 
0.729146 0.228367 -9.569329 199 162 123 0.976135 -0.042127 0.213041 
0.323966 0.246685 -8.312307 107 126 128 0.256035 0.510518 -0.820864 
0.455426 0.073863 -7.139245 228 227 217 0.088993 0.403892 0.910468 
-0.627001 -0.006295 -8.262797 135 94 87 -0.449291 0.609633 0.653059 
0.586983 -0.252443 -8.375113 130 183 197 0.885473 0.182346 -0.427419 
-0.338475 -0.076365 -7.083985 103 140 159 -0.781253 0.006889 0.624176 
-0.780031 0.003671 -7.343103 74 117 150 -0.968405 0.053182 0.243647 
0.229636 -1.065415 -7.844613 126 162 167 -0.470248 -0.840278 -0.269814 
0.656929 0.345916 -7.997247 78 99 112 0.023842 0.716655 0.697020 
-0.838638 -0.782472 -8.177456 224 182 161 -0.861032 -0.498342 0.101382 
0.396927 0.415085 -7.593922 81 94 104 -0.143127 0.939188 -0.312154 
0.679426 0.337884 -9.575420 202 173 142 0.531081 -0.282088 0.798986 
0.052044 -0.681058 -8.708547 217 173 141 0.204374 -0.866725 0.454993 
0.503197 -0.515062 -8.980130 222 189 163 0.597685 -0.243153 0.763970 
-0.755544 0.274238 -8.674975 117 161 201 -0.283314 0.367259 0.885920 
0.088485 -0.656248 -9.136055 213 160 108 -0.287525 -0.951851 0.106345 
0.760409 0.034923 -9.437834 217 185 155 0.799923 0.373511 0.469694 
-0.868926 0.191365 -8.924906 33 50 47 -0.520924 0.611959 0.595101 
0.422600 -0.113642 -8.902584 200 167 135 0.856795 0.430697 0.283555 
0.141499 -0.644244 -8.983135 212 157 129 0.812851 -0.535217 0.229819 
-0.597307 -1.052684 -7.592578 234 200 168 -0.689050 -0.701327 0.182621 
-0.796595 -0.791712 -8.714153 206 161 136 -0.952557 -0.164788 -0.255891 
0.010529 0.298669 -7.208821 38 107 147 0.061865 0.671885 0.738067 
-0.338903 -0.097367 -9.093190 186 147 107 -0.860091 0.318495 -0.398504 
-0.138032 -0.033729 -7.038199 157 172 192 0.018341 -0.089548 0.995814 
0.882746 0.135439 -7.451171 226 228 224 0.787370 -0.581702 0.204133 
-0.858567 -0.346863 -7.309891 96 189 213 -0.890692 0.053196 0.451484 
-0.700975 -0.232686 -8.477908 180 135 112 -0.968738 0.035427 0.245544 
-0.427510 0.534446 -8.454154 58 71 82 -0.277047 -0.888048 -0.366900 
1.133053 -0.767855 -9.621413 205 162 130 0.933914 -0.349387 0.075723 
-0.659052 -0.001893 -9.064362 225 225 237 -0.821825 0.565450 0.069791 
-0.810572 0.106964 -9.529401 30 45 55 0.232024 -0.770820 -0.593297 
-0.383112 -0.548665 -8.878876 214 161 112 -0.776536 0.293781 -0.557391 
-0.616225 0.387422 -7.604373 67 79 96 0.867388 0.458159 -0.194236 
0.536864 -0.478242 -7.332908 239 227 223 0.775920 -0.427813 0.463600 
-0.884268 -0.621115 -8.340665 211 173 163 -0.978930 -0.124681 0.161715 
-0.704192 0.174092 -9.394235 29 44 49 0.648742 -0.745524 0.152734 
-0.292110 0.470782 -8.395981 217 211 220 -0.948340 0.246269 0.200009 
-0.900392 0.053951 -8.745035 75 161 177 -0.808313 0.427365 0.404957 
0.336352 -0.732484 -8.350037 91 126 135 0.379040 -0.726903 -0.572662 
0.024410 -0.652491 -8.845644 234 197 147 -0.087587 -0.989149 0.117950 
-0.335520 0.263725 -9.242841 165 127 108 -0.821525 -0.527795 -0.215708 
-0.005331 -0.442749 -6.986557 68 93 147 0.931430 0.235324 -0.277597 
0.279623 -0.570598 -7.161462 221 155 158 0.251933 -0.558635 0.790226 
0.684926 -0.665406 -7.917372 217 223 218 0.744993 -0.659767 -0.098451 
-0.769418 0.000514 -8.652496 67 81 90 0.747384 -0.359851 -0.558502 
-0.847936 -0.568133 -7.312417 76 122 142 -0.811623 -0.569171 0.131575 
0.668932 -0.769020 -9.142882 238 211 182 -0.992893 -0.098497 0.066797 
0.080536 0.086825 -8.733039 88 65 71 0.295091 0.863867 0.408234 
0.579454 -0.138577 -7.176696 103 156 174 0.362854 -0.632121 0.684661 
0.667594 0.271123 -7.364172 68 89 114 -0.094683 0.188136 0.977569 
-0.616983 -0.764303 -7.118037 147 182 198 -0.602751 -0.413458 0.682454 
-0.388910 0.532109 -8.595189 106 114 128 -0.470701 0.215049 0.855684 
0.348958 -0.150713 -7.058250 214 189 197 0.225095 -0.127340 0.965980 
-0.147700 -0.625806 -9.524825 213 170 139 -0.644811 -0.533695 0.547164 
-0.446895 0.242143 -7.409114 69 151 191 -0.363273 0.857943 0.363273 
0.035960 0.543341 -7.620088 101 158 180 -0.504557 0.862806 0.031449 
0.088231 -0.664322 -9.172076 223 204 180 -0.561092 -0.820505 -0.109304 
-0.715482 0.019321 -7.207267 81 137 156 -0.743136 0.222785 0.630964 
-0.727433 -0.852307 -7.890821 192 145 133 -0.783364 -0.607962 0.129322 
0.333935 -0.043690 -8.841610 183 137 107 0.647709 0.583779 0.489567 
-0.825021 -0.017789 -8.941754 213 110 158 -0.261021 -0.960504 0.096436 
0.378280 0.339158 -7.360988 68 97 122 0.416866 0.642737 0.642737 
0.925542 -0.222447 -9.522033 196 156 130 0.712371 0.563616 0.418167 
0.631084 0.308484 -7.473016 51 59 74 -0.705625 0.708419 -0.015370 
-0.583070 -0.504182 -7.016552 76 150 188 -0.382580 -0.366964 0.847921 
0.765911 0.077098 -8.078868 132 182 190 0.786073 0.618120 -0.004130 
0.589088 -0.217608 -8.355007 117 136 166 0.853901 0.051373 -0.517894 
0.273987 0.033199 -8.630957 117 91 108 0.520595 0.126868 -0.844326 
-0.729573 0.174494 -8.473145 74 122 159 -0.887539 0.372676 0.270901 
0.439798 -0.897859 -7.471695 152 144 173 0.742711 -0.567190 0.355916 
-0.074721 0.450283 -8.319012 124 114 140 -0.084342 0.836272 0.541790 
0.848126 -0.189301 -9.405168 191 153 127 0.442827 0.884212 -0.148571 
0.419187 0.309641 -9.103391 195 161 129 0.849547 0.215782 0.481360 
-0.065131 -1.056448 -7.513817 218 152 167 0.239081 -0.902055 0.359355 
-0.167130 0.631914 -9.079523 176 147 111 -0.714645 0.596900 0.364682 
-0.273872 0.452115 -8.334595 148 148 161 0.415620 0.393327 -0.820094 
0.607310 -0.090335 -9.076085 206 171 142 0.380657 0.832392 0.402770 
0.538995 0.418810 -7.743572 165 163 163 -0.048545 0.998778 0.009296 
0.449439 -0.459241 -7.211689 125 155 169 0.650926 -0.355796 0.670601 
0.493263 -0.666492 -7.515633 103 127 141 0.950368 -0.311007 -0.008674 
-0.237545 0.571768 -8.563551 27 32 33 0.636142 -0.688472 0.348324 
-0.021423 -0.610223 -9.196260 199 153 117 -0.869502 -0.478585 0.122161 
0.506539 -0.659213 -8.279120 219 149 130 0.424057 -0.626939 -0.653547 
-0.131208 -0.850117 -8.683182 211 155 103 -0.061067 -0.813747 -0.578002 
-0.830195 -0.979182 -8.376672 194 151 154 -0.631374 -0.032342 -0.774804 
-0.446222 -1.150746 -7.883065 210 212 214 0.508401 0.856776 -0.086386 
-0.740231 -1.039323 -8.529546 224 147 154 -0.494476 -0.855428 -0.154065 
0.343915 -0.818038 -9.225518 207 169 139 -0.925815 0.184039 -0.330146 
-0.722457 -0.960254 -8.590501 202 159 127 -0.672491 -0.642895 -0.366664 
-0.692493 -0.962763 -8.618502 195 148 124 -0.816965 -0.554102 -0.159809 
-0.214696 0.363990 -8.089983 69 53 69 -0.641437 0.493283 -0.587563 
-0.565455 0.178342 -8.325464 111 86 100 -0.230014 0.538758 0.810453 
-0.131304 -0.606059 -8.922489 228 186 145 0.061698 -0.996906 0.048709 
0.957155 -0.717817 -9.324204 221 191 164 0.487844 0.511154 0.707623 
-0.357133 -0.037443 -9.285635 177 160 145 -0.749299 -0.229952 0.621026 
0.778063 -0.540385 -7.767550 83 140 183 0.836568 -0.211040 0.505585 
0.280613 0.480109 -7.874896 66 105 117 0.301582 -0.556889 0.773901 
0.477167 -0.376044 -8.951725 207 164 145 0.333308 -0.324259 0.885303 
0.222754 -0.914885 -7.255228 149 143 191 0.545388 -0.185825 0.817326 
0.736303 -0.525720 -7.735372 59 66 79 0.794566 0.588068 0.151132 
-0.142273 -1.096500 -7.988911 247 223 202 -0.215415 -0.974846 0.057201 
0.239555 -0.983163 -7.986613 102 153 162 -0.858731 -0.427070 -0.283182 
-0.724596 -0.025611 -9.149130 49 95 113 -0.069735 -0.901092 -0.427984 
-0.178625 0.316079 -7.264391 80 148 170 -0.294902 0.565893 0.769934 
0.837945 -0.308870 -7.933264 151 133 160 0.948650 0.090535 0.303096 
-0.558553 -0.031353 -7.117990 109 136 138 -0.614703 0.151797 0.774014 
-0.176746 -1.114947 -8.121294 244 212 195 0.226690 -0.968815 0.100048 
-0.638202 -0.014083 -8.953809 188 170 191 0.369541 -0.901212 -0.226399 
0.583691 -0.466184 -7.418239 221 149 160 0.813748 -0.401279 0.420463 
-0.605408 0.296046 -8.751232 55 80 97 0.074960 0.990629 0.114170 
0.858936 -0.753770 -9.245880 223 191 153 0.029536 -0.199664 0.979419 
-0.225720 0.548765 -8.668400 106 105 126 -0.289794 0.539999 0.790203 
0.254789 -0.642342 -7.153340 237 241 230 0.424183 0.427409 0.798367 
-0.701713 -0.739232 -7.221053 105 124 151 -0.468881 -0.858367 -0.208225 
0.209326 -0.486168 -7.077374 212 191 200 0.123402 -0.634852 0.762715 
0.198643 -0.752174 -8.414852 39 32 28 -0.315974 -0.149096 -0.936980 
-0.194870 -0.998171 -7.164827 237 228 226 -0.095316 -0.708273 0.699474 
-0.724163 -0.974983 -7.859280 219 186 153 -0.695422 -0.717991 0.029622 
0.101358 0.496759 -7.980961 151 147 184 0.137953 0.986894 -0.083715 
0.576333 -0.679541 -7.474443 90 129 146 0.478304 0.625991 0.615922 
-0.724181 -1.070318 -8.029322 246 211 192 0.077665 -0.996884 -0.013831 
0.817122 0.222367 -9.774512 193 153 131 0.030010 0.922468 -0.384905 
-0.631465 0.500775 -7.965930 77 103 126 -0.690173 -0.529746 -0.492981 
-0.075267 0.309833 -7.228772 134 172 194 -0.258793 0.703346 0.662066 
-0.857678 -0.529918 -7.395308 93 106 112 -0.462565 -0.752285 -0.469149 
-0.847402 -0.422461 -8.340813 195 155 134 -0.911362 0.373929 -0.172036 
0.104599 0.134116 -7.100960 108 178 204 0.080680 0.519464 0.850675 
-0.872679 -0.129870 -7.794326 103 139 158 -0.894962 -0.177836 -0.409167 
-0.221548 0.231398 -9.023860 166 116 115 0.406554 0.827346 0.387571 
0.484456 0.542336 -9.409174 195 147 114 0.835491 0.533011 0.133620 
-0.874142 0.178445 -9.509910 53 46 39 -0.960057 -0.083094 0.267180 
0.308997 -0.836558 -9.286391 210 177 135 -0.540624 -0.837326 0.081308 
-0.697503 -0.027809 -8.902717 152 188 211 0.208364 -0.977523 -0.032148 
-0.770722 -0.263844 -8.302311 191 157 132 -0.906047 0.412341 -0.095156 
-0.521999 0.184997 -8.286278 50 47 60 -0.673931 -0.714028 -0.189688 
-0.275637 -0.940193 -7.110754 82 133 164 -0.155453 -0.617285 0.771229 
0.208718 -0.596838 -8.898082 225 184 134 0.264789 -0.727773 0.632640 
1.042538 -0.351095 -9.591178 198 161 118 0.104404 0.421793 0.900661 
-0.682581 -1.006140 -7.646646 217 173 155 -0.774232 -0.606252 -0.181723 
-0.204867 -1.149508 -7.684516 186 96 149 0.565387 -0.692141 0.448641 
-0.242871 -1.090806 -8.317965 243 215 194 -0.087532 -0.830838 -0.549587 
0.548784 -0.617902 -7.594578 30 47 34 -0.137544 0.938296 0.317305 
-0.558663 -0.653700 -7.043743 142 119 154 -0.321075 -0.291483 0.901082 
-0.900515 -0.148479 -7.634834 119 197 213 -0.904464 0.292664 0.310312 
0.293230 -0.805969 -7.175227 161 147 187 0.436515 -0.739605 0.512288 
0.120278 0.349937 -7.275766 86 157 183 0.004153 0.746103 0.665817 
0.917967 -0.266532 -9.471215 189 159 123 0.682674 0.023830 0.730335 
-0.284473 0.471813 -8.364218 46 63 97 -0.821942 0.130864 0.554333 
0.089922 -0.891916 -7.150187 200 185 190 0.546965 -0.304578 0.779783 
-0.734680 -0.947926 -7.874366 214 171 154 -0.889169 0.105352 0.445287 
-0.815525 0.150857 -9.135788 50 78 82 -0.560607 -0.827824 -0.020661 
0.708441 -0.416567 -8.110819 183 179 159 0.883327 -0.094090 -0.459218 
0.574261 0.398498 -7.684634 110 75 102 0.253153 0.895658 0.365665 
0.635879 -0.760966 -7.830040 136 196 200 0.522582 -0.840547 -0.142790 
0.355379 0.076702 -8.919687 188 152 118 0.169650 0.062877 0.983496 
-0.065226 0.240108 -8.921714 160 123 128 -0.742066 0.384957 0.548768 
-0.812689 0.122201 -7.742466 45 45 66 -0.585773 0.672554 0.452263 
0.412518 0.011544 -8.926931 195 150 117 0.565880 0.498713 0.656555 
-0.136087 -0.302808 -6.953742 126 127 144 0.460289 0.617624 0.637710 
0.698874 -0.203670 -7.542409 189 145 177 0.893929 0.203365 0.399415 
-0.148494 0.693590 -9.101718 189 154 126 -0.678985 -0.484510 0.551570 
-0.674825 0.054075 -7.251079 66 52 73 -0.119555 0.862812 0.491184 
-0.316228 -0.870807 -8.759016 221 173 134 0.072632 -0.556845 -0.827435 
-0.566366 -0.980130 -7.380620 111 149 149 -0.506218 -0.664307 0.549945 
0.006246 -1.103711 -7.369420 207 227 227 0.374377 -0.817257 0.438101 
-0.158970 -1.153296 -7.785952 212 208 196 0.459499 -0.884082 -0.085196 
0.155246 0.008360 -7.050925 78 130 154 0.259147 0.422819 0.868370 
-0.636158 -1.067737 -7.724511 220 196 161 -0.030909 -0.458253 -0.888284 
0.465784 -0.209456 -8.934114 198 159 121 0.886716 -0.207342 0.413213 
-0.730137 -0.033513 -8.973090 91 87 99 -0.001292 -0.911072 0.412244 
-0.786612 0.149460 -7.911331 48 55 81 -0.831454 0.063524 -0.551950 
-0.776637 0.292919 -7.574138 68 82 117 -0.977049 0.195410 0.084800 
-0.184690 -0.484979 -9.476234 206 153 129 -0.406157 -0.887637 0.217109 
-0.676685 0.080793 -8.375193 53 103 135 -0.686498 -0.089289 0.721628 
0.340246 -0.179898 -8.817390 182 134 99 0.767863 0.640577 -0.006918 
1.033943 -0.645170 -9.404222 206 162 140 0.594789 -0.365394 0.716040 
0.463096 0.340282 -8.095275 98 65 83 -0.937895 0.249455 -0.241093 
-0.827195 -0.066850 -7.916376 47 69 88 -0.868605 -0.119164 -0.480963 
-0.917009 -0.479827 -7.742731 161 193 199 -0.964411 0.006035 -0.264338 
-0.775434 -0.053546 -7.303003 122 166 164 -0.901426 0.113202 0.417871 
-0.964978 -0.041120 -9.083707 91 145 180 0.236928 -0.940783 0.242470 
-0.717843 -1.037602 -8.553875 228 122 132 -0.162589 -0.679225 -0.715694 
0.611244 -0.402560 -7.430957 121 129 149 0.900074 -0.047230 0.433169 
0.339125 0.543756 -7.849841 91 129 151 0.599543 0.552255 0.579277 
-0.890757 -0.492786 -7.506067 144 107 140 -0.962475 -0.269887 -0.028344 
0.145463 -0.622947 -7.033184 89 159 191 0.285346 -0.488051 0.824854 
-0.552387 0.465305 -7.901686 49 82 82 0.633199 0.649818 -0.420471 
-0.025824 0.511971 -7.627810 98 99 114 -0.360021 0.920364 -0.152694 
-0.578789 0.497111 -7.730757 75 123 142 0.766968 0.479150 0.426820 
-0.256360 -0.905008 -7.079638 103 148 174 -0.297231 -0.724602 0.621776 
-0.285900 -0.578889 -6.937165 126 188 216 -0.466380 -0.312490 0.827550 
0.626094 0.130686 -7.224336 79 109 133 0.021838 0.363537 0.931324 
-0.171878 -0.597883 -9.538731 208 161 124 -0.676502 0.572939 0.462694 
0.349323 -0.264795 -8.711288 213 165 185 0.839291 -0.069351 -0.539241 
-0.689033 -0.964193 -7.495856 63 96 128 -0.254032 -0.752629 -0.607468 
-0.234034 -1.118604 -8.197278 240 199 163 0.189917 -0.847896 0.494980 
-0.537917 -0.047545 -7.095840 103 151 161 -0.620524 0.205810 0.756699 
0.470091 -1.066844 -9.292703 199 165 141 -0.258851 0.697150 0.668565 
-0.345249 -0.156019 -9.057528 179 132 101 -0.961917 0.112331 -0.249195 
-0.797348 -0.881979 -8.242596 170 100 92 -0.456343 0.529358 -0.715214 
0.161485 -0.657562 -7.054403 187 175 190 0.523494 -0.503424 0.687400 
-0.531946 0.132730 -8.988616 117 67 92 0.749883 -0.284987 -0.597041 
0.472949 -0.884466 -7.496462 131 138 161 0.531812 -0.845622 -0.045822 
0.430318 0.227241 -8.273169 43 74 80 0.528319 0.034486 -0.848345 
0.969850 -0.684361 -9.331261 205 167 133 0.557745 -0.403090 0.725562 
0.815106 -0.305699 -7.908209 95 166 193 0.426001 0.471702 0.772024 
0.797995 -0.084405 -7.963579 123 125 108 0.771087 -0.061515 -0.633751 
0.321914 -0.127654 -8.802931 186 161 143 0.912791 0.150956 0.379507 
-0.882537 -0.103494 -7.602804 57 113 127 -0.861665 0.507260 -0.014880 
-0.903894 -0.394700 -7.573810 202 124 123 -0.792428 0.326856 0.514998 
0.223701 0.324272 -7.283890 61 81 113 0.509612 0.752129 0.417849 
0.119845 0.116783 -8.668537 142 127 117 0.366664 0.642895 -0.672491 
-0.338627 -1.049004 -7.389487 168 164 180 -0.125744 -0.797363 0.590255 
0.711250 -0.385533 -7.817430 20 40 38 0.568136 0.758051 -0.320281 
-0.763633 -1.009301 -8.502020 221 137 132 -0.343015 -0.837958 0.424461 
-0.285872 0.470886 -8.664561 18 25 30 0.560283 -0.804548 -0.196939 
-0.544468 0.290464 -7.588529 136 112 127 0.461824 0.858963 0.221134 
0.634243 0.393103 -8.021483 52 67 78 0.934824 -0.293961 -0.199225 
-0.350389 -0.979708 -7.200124 206 170 177 -0.538668 -0.720987 -0.435907 
0.816803 0.088679 -9.626805 194 154 131 0.721210 0.179154 0.669148 
-0.056409 -0.620579 -9.025373 233 196 155 -0.397567 -0.917159 -0.027554 
-0.726030 0.001510 -8.535648 108 111 154 -0.544627 -0.066487 0.836039 
-0.823330 -0.812011 -8.591442 199 160 124 -0.874605 -0.378742 -0.302689 
-0.736956 -0.023614 -7.227096 165 156 166 -0.864887 0.200963 0.459983 
0.404986 0.310800 -7.369095 71 87 100 0.832662 0.194943 0.518336 
0.640031 -0.219956 -7.320743 67 107 143 0.596493 -0.264229 0.757878 
0.125634 -0.085669 -7.019371 121 159 182 0.043753 0.111065 0.992850 
-0.719327 0.006092 -9.332370 74 115 116 0.437301 -0.876085 -0.203086 
0.715661 -0.574958 -7.962135 208 154 184 0.787653 -0.543591 -0.290021 
-0.887810 -0.584465 -7.954385 204 171 148 -0.855103 -0.244532 -0.457169 
-0.838091 0.041453 -7.796942 124 117 155 -0.864388 0.065632 -0.498524 
0.011326 -0.629487 -9.173612 223 181 141 -0.441474 -0.892696 0.090523 
-0.325346 0.090744 -8.690121 57 45 42 0.041079 -0.763494 -0.644508 
-0.178850 0.686193 -9.103482 193 160 122 -0.718968 -0.050028 0.693240 
0.064167 -0.866336 -9.471629 233 206 175 -0.838192 -0.514311 -0.181433 
0.362145 0.096656 -8.507813 80 81 89 0.561447 0.224269 -0.796543 
-0.511082 0.240969 -8.908169 48 57 56 0.301404 0.864433 -0.402382 
0.726228 -0.233865 -7.704846 135 165 180 0.884761 0.076392 0.459742 
0.608032 -0.242797 -7.283901 151 176 185 0.862507 -0.234131 0.448625 
-0.239798 -1.028452 -8.540344 240 203 176 0.697536 -0.681932 0.220028 
0.308852 -0.639840 -7.218014 195 198 197 0.676993 0.420833 0.603804 
0.193286 -0.751443 -7.076844 231 212 212 0.253880 -0.245464 0.935570 
0.671180 -0.055878 -8.112843 48 50 48 0.895616 0.246405 0.370345 
0.837291 -0.310679 -8.010676 177 119 175 -0.001218 -0.958193 -0.286119 
-0.404449 -0.956527 -7.163534 76 140 161 -0.416953 -0.897943 0.140882 
0.163053 -0.982052 -7.756247 48 106 131 0.059148 -0.994348 -0.088163 
-0.556702 0.011788 -8.898365 83 86 80 0.237686 -0.351426 -0.905541 
-0.775485 0.081658 -9.499159 34 62 77 -0.015286 -0.629524 0.776830 
-0.396101 -0.192678 -9.548973 223 184 153 -0.805939 -0.254097 -0.534694 
0.048970 -0.964448 -8.167882 187 126 103 0.808021 -0.516192 -0.283984 
0.169987 -1.100891 -7.517860 96 137 153 0.489555 -0.861443 0.135100 
-0.647973 0.036338 -9.080006 92 102 123 0.595563 0.088393 -0.798431 
0.494341 0.353310 -9.247222 194 164 132 0.003635 0.960737 0.277438 
-0.575193 -0.166293 -7.042762 66 129 151 -0.404786 0.333445 0.851447 
-0.851752 0.000863 -8.685163 194 156 197 -0.350476 -0.712362 0.608035 
-0.407951 -0.420968 -8.921718 193 156 112 -0.164454 -0.848939 0.502252 
-0.232269 -0.441213 -9.537241 199 165 138 -0.440487 -0.087542 0.893481 
0.909380 -0.870547 -9.306802 214 172 155 0.591869 0.338906 0.731323 
-0.501902 0.122764 -7.284046 59 73 100 -0.051135 -0.260662 0.964075 
-0.908765 -0.347179 -7.462989 187 196 172 -0.936746 -0.233140 0.261060 
0.763738 -0.376177 -8.027616 117 129 140 0.645892 -0.213222 -0.733048 
0.117893 -0.748241 -7.046657 218 191 195 0.277496 -0.588291 0.759546 
-0.046951 0.700810 -9.087909 195 163 134 0.294963 0.098321 0.950437 
-0.870209 -0.707920 -8.166294 220 179 153 -0.710544 -0.494219 0.500875 
-0.551267 -0.795981 -8.829837 194 202 195 0.807967 0.523538 0.270364 
0.488167 -0.333311 -8.497491 143 152 113 -0.213576 -0.675026 -0.706205 
-0.245537 0.499211 -8.326723 20 35 36 0.612844 -0.789545 0.032255 
0.448892 -0.930165 -9.234535 222 172 142 -0.516538 -0.506508 0.690389 
0.576154 0.389940 -9.419681 199 166 127 0.596449 0.026416 0.802216 
-0.807967 -0.103842 -7.911201 89 61 72 -0.448382 -0.084679 -0.889822 
-0.310645 0.580348 -8.316940 15 24 33 0.758150 0.651645 0.023824 
0.120083 -1.128426 -7.563251 143 172 185 -0.045790 -0.997801 -0.047920 
-0.608149 -1.074788 -7.692301 223 192 161 -0.339720 -0.854730 0.392462 
0.838620 0.091390 -9.666241 183 154 124 0.591496 0.320730 0.739773 
0.233576 -0.900885 -8.106720 112 128 128 -0.869289 -0.432384 -0.239544 
-0.738065 -0.216465 -8.300729 186 144 116 0.641692 0.540638 -0.544006 
-0.024669 0.292321 -7.206144 207 143 159 -0.067934 0.718362 0.692345 
-0.217145 -0.445680 -9.173963 222 181 133 -0.740384 -0.567899 -0.359615 
-0.781782 -0.805638 -8.755074 206 165 147 -0.193886 0.933161 -0.302685 
-0.477696 -1.115615 -7.524188 79 146 178 -0.379898 -0.818609 -0.430763 
-0.719198 0.008630 -8.788213 82 137 134 -0.329042 -0.711573 0.620803 
0.749760 0.047167 -7.535767 29 63 97 0.995555 -0.073867 0.058432 
0.040391 0.531659 -7.580631 167 166 185 0.339195 0.928979 0.148138 
-0.903669 -0.464854 -7.562729 178 91 116 -0.959985 -0.043806 0.276606 
-0.755614 -0.556115 -8.706388 185 145 123 -0.422492 0.390606 -0.817880 
0.498316 -0.874090 -7.993555 71 136 171 0.415719 -0.787763 -0.454541 
-0.444593 -0.114655 -9.558202 222 182 133 0.036507 -0.952966 0.300870 
-0.813862 0.000362 -9.132133 11 23 30 0.652226 -0.544365 -0.527511 
-0.316604 -0.225240 -9.183587 196 158 118 -0.979283 0.015174 -0.201926 
-0.078756 -1.046657 -7.471024 171 144 140 -0.025048 -0.974486 0.223046 
0.578418 0.468156 -9.506589 202 169 135 -0.122937 -0.921338 0.368812 
-0.581230 0.465893 -8.124041 129 149 172 -0.855989 0.351373 -0.379236 
0.555056 0.116238 -9.133079 195 157 127 0.399138 0.496886 0.770580 
0.537388 -0.465756 -8.984586 206 170 143 0.319803 -0.517095 0.793939 
0.661894 -0.451291 -7.640536 166 177 148 0.898794 -0.438211 0.011844 
0.172849 -0.763282 -9.331819 218 173 138 -0.636378 -0.435944 0.636378 
0.513655 0.455862 -9.377117 192 163 111 0.836146 0.072400 0.543708 
0.610447 -0.063345 -7.185906 80 130 173 0.722485 -0.070945 0.687737 
0.155873 0.523045 -7.579982 104 141 156 0.627328 0.657280 0.417664 
-0.052265 0.464608 -8.001518 240 222 221 0.039562 0.991309 0.125468 
0.550319 -0.689397 -8.216663 129 123 155 0.512565 -0.696220 -0.502548 
0.465075 0.514331 -9.348212 195 162 126 0.669740 0.716143 0.196437 
-0.687497 0.058851 -8.395861 70 116 140 -0.530606 -0.438039 0.725658 
0.363465 -0.147678 -8.587362 180 175 154 0.167193 -0.250121 -0.953670 
0.288692 0.184337 -8.449292 54 82 86 0.188508 0.770890 0.608436 
-0.296388 -0.838631 -8.759144 221 175 135 0.177368 -0.134599 -0.974897 
-0.391058 0.266247 -8.484555 37 49 54 0.426912 0.903341 -0.041487 
0.852305 0.271930 -9.892175 180 152 120 0.781483 0.623803 0.012448 
-0.745597 0.111687 -7.294045 166 172 173 -0.844020 0.315536 0.433668 
0.357025 0.539958 -9.187045 201 164 142 0.467462 0.284204 0.837083 
0.406249 0.408910 -7.830563 173 202 202 0.696014 0.673918 0.247787 
-0.177314 0.569164 -9.067957 187 150 115 -0.584701 -0.332032 0.740189 
0.053010 0.473450 -7.528636 23 38 47 0.281281 0.902749 -0.325461 
-0.655768 -0.152509 -7.098631 208 200 200 -0.623583 0.158538 0.765513 
-0.450320 0.476499 -7.891433 42 43 61 -0.015530 0.237725 0.971208 
0.658104 0.352131 -7.510171 78 82 104 -0.798729 0.589081 -0.122541 
0.386519 -0.281417 -8.863036 188 139 104 0.506574 -0.370624 0.778473 
-0.852666 -0.132183 -7.412779 147 148 171 -0.799433 0.435908 0.413389 
-0.848904 -0.632236 -8.548755 197 155 139 -0.948983 0.183280 -0.256592 
0.245734 0.381088 -8.175232 93 91 114 -0.035242 0.771084 -0.635757 
-0.681288 0.299183 -8.810967 45 80 87 -0.125444 0.866571 0.483030 
0.713962 -0.000405 -7.424217 173 150 166 0.806717 -0.332552 0.488485 
-0.510151 0.592044 -7.968495 100 112 105 0.375041 0.790322 0.484495 
-0.514048 -1.056269 -8.110476 221 176 146 -0.230461 -0.928913 0.289843 
0.546196 0.296062 -7.451778 71 83 98 0.142760 0.737844 0.659702 
0.454965 -0.432851 -8.475743 89 107 118 0.747516 -0.126824 -0.652025 
0.779527 -0.083760 -8.014066 58 82 86 0.600510 0.586977 0.542996 
-0.835146 -0.366775 -8.275517 194 164 136 -0.703363 0.362338 -0.611549 
-0.338209 0.618380 -8.429657 117 157 180 -0.413598 0.110014 -0.903788 
0.577920 0.088441 -9.142898 206 168 134 0.883541 0.176708 0.433738 
-0.794530 -0.023991 -9.020299 70 103 118 -0.414455 -0.849089 -0.327528 
0.885225 -0.512126 -9.237223 207 166 137 0.501538 0.362849 0.785366 
1.003095 -0.471451 -9.386308 194 149 112 0.925907 0.199317 0.320887 
0.442540 0.313177 -9.133136 205 166 142 0.424984 0.756438 0.497182 
-0.397561 -0.173356 -8.838849 171 126 103 -0.807627 -0.015186 -0.589498 
0.195629 -0.553162 -7.107169 167 200 201 0.224645 -0.505833 0.832867 
0.646829 0.326207 -9.498491 195 168 135 0.770289 0.336097 -0.541936 
0.497148 -0.703647 -7.284562 92 108 146 0.368964 0.614940 0.696932 
-0.858997 0.004746 -7.698036 145 143 186 -0.979253 0.175260 -0.101725 
-0.006507 0.167919 -8.658313 31 48 53 0.221613 0.829904 -0.512003 
0.614861 -0.505518 -7.555197 46 107 149 0.996461 -0.042287 0.072647 
-0.335680 -0.313984 -9.618045 205 163 125 -0.759792 -0.542709 0.358026 
-0.667413 -0.885706 -7.367492 173 154 170 -0.555716 -0.579363 0.596254 
-0.566853 0.230733 -7.444162 38 44 53 0.942562 0.156414 0.295146 
0.150448 -0.896279 -9.416015 208 161 112 -0.093802 -0.171768 -0.980661 
-0.846506 0.133463 -9.638665 51 104 118 0.433374 -0.695723 0.572850 
-0.010782 0.423347 -8.079743 65 78 78 -0.037537 0.999291 0.003044 
-0.445950 0.517455 -8.295720 27 52 55 -0.104817 -0.895836 0.431846 
0.714977 -0.274252 -9.136295 196 166 141 -0.228096 0.963217 -0.142071 
-0.765749 -0.887635 -7.995900 198 154 115 -0.728569 -0.233455 0.643961 
-0.914901 -0.605253 -7.627839 219 102 161 -0.995047 -0.099398 0.001069 
0.546628 -0.781631 -8.109934 48 88 111 0.327364 -0.865287 -0.379620 
-0.688050 -1.088067 -8.128028 238 194 169 0.617197 -0.751574 0.232816 
-0.774222 0.080685 -9.232201 25 33 39 -0.818077 0.192757 -0.541843 
0.838826 -0.246257 -9.343812 195 164 139 0.890564 0.453987 -0.028123 
-0.389668 0.319754 -7.664206 107 132 136 0.265476 0.723303 0.637460 
-0.631511 0.320218 -8.162425 66 109 129 -0.584654 0.798878 0.141329 
0.509194 -0.783673 -8.133048 61 100 137 0.332378 -0.611251 -0.718260 
-0.685520 -0.029138 -7.157107 103 139 170 -0.698592 0.213156 0.683033 
0.090401 -0.756796 -8.486300 218 168 147 0.376734 -0.755099 -0.536561 
-0.722477 0.273631 -7.915107 190 165 169 -0.942012 0.088520 -0.323693 
0.030243 0.424239 -8.371867 184 183 155 0.362631 0.621888 -0.694085 
0.165429 0.069447 -8.803766 162 110 84 0.311283 0.633855 0.708047 
0.846234 0.061514 -9.684816 196 162 136 0.982598 0.183434 0.029209 
0.068069 -0.680161 -7.012527 153 185 189 0.452939 0.430211 0.780874 
0.764964 0.237786 -9.677982 196 162 139 0.746104 0.323903 0.581735 
0.792912 -0.466445 -7.938819 225 219 195 0.403050 -0.665116 -0.628626 
0.467113 0.357135 -7.519614 55 91 109 0.478251 0.609140 0.632633 
-0.677821 0.445013 -7.897958 51 69 79 -0.416557 0.907259 -0.057968 
-0.227046 0.056622 -7.095320 155 182 192 -0.198532 0.522850 0.828983 
0.773381 0.261757 -9.700920 184 151 112 0.511334 0.518040 0.685691 
0.767596 -0.928471 -9.248033 214 194 156 -0.073099 -0.049097 0.996115 
0.639533 -0.550326 -9.059374 210 176 137 0.753197 -0.490645 0.438134 
0.612974 -0.377986 -8.352755 29 84 120 0.894390 -0.293169 -0.337814 
-0.335501 -0.467273 -6.940359 199 152 160 -0.032417 0.040782 0.998642 
-0.876221 0.178028 -8.831415 26 44 48 -0.474155 0.860614 0.185797 
0.860524 -0.535954 -9.212854 208 173 141 0.091194 0.809167 0.580458 
0.645556 -0.478664 -8.204813 96 147 147 0.946852 -0.107266 -0.303258 
-0.900088 -0.318391 -7.842066 120 160 182 -0.761732 -0.287836 -0.580443 
0.739448 0.157325 -7.742730 44 53 59 0.281601 0.803901 -0.523873 
0.059046 0.504181 -8.999189 187 156 119 -0.011632 0.394205 0.918949 
0.823293 -0.512097 -9.183045 209 182 135 0.661959 0.251197 0.706195 
0.327716 0.547931 -7.922415 54 74 91 0.694392 0.615596 0.372641 
-0.193575 -1.097227 -7.337016 202 115 164 0.242065 -0.964419 -0.106304 
0.016430 0.392439 -8.225707 52 68 85 0.068550 0.860374 -0.505032 
0.498838 0.602984 -9.502984 170 141 106 -0.152639 0.751106 0.642294 
0.026722 0.182258 -8.626030 120 119 116 0.344621 0.501704 -0.793429 
0.518599 -0.545413 -8.999278 207 177 135 0.088715 -0.769348 -0.632640 
0.500788 -0.862152 -9.149439 219 186 142 -0.152588 -0.639055 0.753874 
-0.869298 -0.195937 -7.408535 66 137 169 -0.904705 0.355159 0.235311 
-0.313069 0.421315 -8.359779 23 30 36 -0.235969 0.592266 -0.770415 
-0.117208 -1.092533 -7.566024 220 128 168 0.503287 -0.801766 0.322294 
-0.369873 -0.918597 -8.745760 232 190 155 -0.604505 -0.790955 0.094681 
-0.755362 -0.662125 -7.197044 111 117 143 -0.865641 -0.100920 0.490388 
0.464472 -0.435784 -8.943799 200 166 143 0.903667 -0.046996 0.425650 
-0.106023 -0.683065 -8.767435 219 177 124 -0.160759 -0.850989 -0.499974 
-0.641050 0.152449 -7.346139 96 94 94 -0.236223 0.599161 0.764987 
-0.300038 0.556903 -8.418419 16 22 35 -0.097728 0.909834 -0.403300 
-0.886976 -0.634758 -8.029127 216 178 155 -0.905756 0.058044 0.419806 
-0.016839 0.232668 -8.901640 167 137 109 -0.182457 0.473203 0.861852 
-0.597882 0.177204 -9.601177 65 89 88 0.186975 -0.976974 0.102774 
-0.385400 -1.138352 -7.532920 147 138 135 0.329690 -0.677245 0.657756 
0.636461 -0.330458 -7.423367 112 156 192 0.902909 -0.355603 0.241459 
0.482111 -0.239261 -8.504819 42 48 72 0.536163 -0.512633 -0.670624 
-0.221011 0.541028 -8.547022 86 148 161 0.911527 -0.049525 -0.408246 
-0.315911 0.419485 -8.429355 90 94 124 0.022149 0.394766 0.918515 
0.641291 -0.133541 -9.105684 211 164 151 0.634535 0.405903 0.657729 
-0.167411 -1.146358 -7.831348 203 93 126 -0.109361 -0.812189 -0.573053 
0.364180 0.534954 -7.994829 113 152 149 0.325624 0.889838 -0.319621 
0.663135 -0.581166 -8.070366 171 211 211 0.886334 -0.289446 -0.361432 
-0.858727 0.037363 -8.653733 52 109 129 -0.551920 -0.153229 0.819698 
0.481664 0.478117 -9.338779 203 169 135 0.835542 0.297185 0.462115 
-0.763227 -0.050195 -7.273898 137 154 178 -0.912399 0.153712 0.379343 
-0.378791 -0.019500 -7.122249 139 145 167 -0.800991 0.598314 0.020823 
0.672834 0.224125 -7.306727 177 200 195 -0.446264 0.721653 0.529212 
-0.322868 -0.259079 -9.136460 188 145 108 -0.964278 0.063951 -0.257057 
-0.881049 -0.244304 -7.403986 65 116 150 -0.902483 0.275309 0.331254 
0.635067 -0.545187 -8.246086 198 202 200 0.974374 -0.106046 -0.198368 
-0.361378 0.421518 -8.331415 39 30 40 -0.510613 0.158364 -0.845101 
-0.360902 0.377891 -7.685289 101 81 107 -0.106567 0.964239 -0.242665 
0.528779 -0.902312 -7.824287 142 217 230 0.646127 -0.760740 -0.061604 
-0.558171 0.221992 -8.365084 43 48 54 0.123978 0.884947 0.448886 
0.606291 -0.593631 -8.255136 83 144 148 -0.122059 -0.413877 -0.902113 
-0.560458 0.667164 -8.016756 101 137 154 0.875554 0.437036 0.205925 
-0.797528 -0.896719 -7.759051 184 163 154 -0.770860 -0.221797 -0.597145 
0.182736 0.568887 -7.726932 72 81 90 -0.295159 0.920032 -0.257724 
-0.208439 0.633254 -8.475387 54 82 98 0.194785 0.980840 0.003458 
0.401003 -0.882381 -9.248053 210 180 150 -0.559357 -0.429892 0.708740 
0.295239 -0.115187 -8.608045 109 73 95 0.710685 0.457701 -0.534262 
-0.689430 -0.772639 -7.247979 47 120 148 -0.466401 -0.195203 0.862767 
-0.390231 0.250590 -8.441761 86 115 116 0.238796 0.948361 0.208776 
0.032661 0.235350 -7.157186 85 107 140 0.160591 0.496507 0.853048 
-0.082291 0.110477 -7.087326 85 123 159 0.745803 0.612794 0.261269 
-0.198057 -1.112387 -7.918079 233 202 178 -0.003625 -0.963008 -0.269449 
0.907370 -0.423110 -9.289193 206 166 139 -0.301117 0.713341 0.632829 
-0.240531 -0.466081 -9.562184 214 180 147 -0.272666 0.154466 0.949628 
-0.174555 0.366057 -8.221401 72 101 115 0.056542 0.988912 0.137317 
0.631134 -0.087557 -7.226152 234 220 207 0.812078 -0.226519 0.537790 
-0.417368 -0.976042 -7.226762 100 129 184 -0.383087 -0.274921 0.881852 
-0.829613 -0.963886 -8.239133 117 70 72 -0.001018 -0.041758 -0.999127 
-0.615883 -0.037311 -8.231495 204 175 135 -0.884314 0.341975 0.317871 
0.234408 0.014370 -8.645237 81 53 62 0.085451 -0.206817 -0.974641 
0.943013 -0.365957 -9.387193 198 156 129 0.623635 0.453097 0.637011 
-0.658403 -0.994018 -8.612863 218 163 124 -0.304888 -0.563484 -0.767807 
-0.770469 -1.021866 -8.301959 220 168 134 -0.371533 -0.764156 -0.527284 
-0.071154 0.252853 -7.179589 186 215 214 -0.198933 0.636895 0.744843 
-0.338668 -0.289537 -9.596030 200 149 106 -0.692998 -0.437071 0.573344 
-0.827809 0.094329 -7.778862 98 86 128 -0.926945 -0.249179 -0.280504 
-0.467279 -0.264452 -7.003400 37 38 42 0.564662 0.815295 0.128265 
-0.499805 -1.084605 -7.804315 235 202 173 -0.475632 -0.106485 -0.873175 
0.663597 -0.371955 -7.539792 208 218 210 0.960215 -0.025952 0.278054 
0.065584 -0.774642 -8.526371 216 175 133 0.584613 -0.386998 -0.713064 
0.585250 -0.330948 -8.405865 237 214 203 0.671452 -0.206243 -0.711770 
0.779963 0.130123 -7.302325 62 118 147 0.739875 -0.356115 0.570760 
-0.861022 -0.717588 -7.945977 186 164 142 -0.784436 -0.549897 0.286834 
0.375570 -0.522496 -8.928434 207 166 140 0.023874 -0.315384 0.948664 
-0.621994 0.159400 -7.235613 64 138 181 -0.245020 0.791242 0.560268 
-0.726311 -0.988196 -8.474366 82 45 54 -0.356203 -0.885248 0.299091 
-0.464380 -0.583224 -10.237720 148 161 155 -0.107771 -0.683534 0.721918 
0.471535 -0.072497 -8.948522 212 181 151 0.540368 0.740748 0.399117 
-0.506545 -1.052445 -8.555004 223 181 138 -0.691433 -0.136487 0.709431 
0.683002 -0.109153 -8.172349 66 85 114 0.614318 0.254255 -0.746973 
0.598830 -0.163711 -7.211237 96 125 164 0.786627 -0.231178 0.572516 
0.368698 0.493598 -9.170845 194 150 125 0.622244 0.531184 0.575027 
-0.016513 0.454347 -8.044665 90 96 105 -0.190430 0.875387 -0.444336 
-0.893394 -0.465319 -8.021502 212 173 155 -0.999091 -0.042013 -0.007173 
-0.527277 0.018007 -7.099335 175 165 175 -0.807627 0.015186 0.589498 
-0.120837 -0.550544 -9.141655 212 166 129 -0.643732 -0.692377 -0.325920 
0.521497 0.397136 -8.126014 77 69 81 0.191732 0.762325 -0.618142 
-0.847250 0.024853 -7.760310 167 142 185 -0.972833 0.137892 -0.185964 
0.646627 -0.197607 -8.190179 111 104 131 0.867525 0.380977 -0.319776 
0.757173 -0.582200 -7.724469 46 127 164 0.790337 -0.425069 0.441231 
-0.320609 0.380176 -7.640823 112 139 159 -0.689957 0.723546 0.020993 
-0.757127 -0.343603 -8.556720 187 144 105 -0.823238 0.410826 0.391792 
-0.602556 0.182014 -9.067089 106 130 150 0.366926 0.515637 -0.774263 
-0.779374 0.189768 -8.698170 56 94 121 -0.883424 0.464452 -0.062019 
0.150104 0.299267 -8.930692 188 170 152 0.304186 0.638952 0.706549 
0.304472 -0.956927 -8.069804 209 228 222 0.451056 -0.814451 -0.364989 
0.228278 -0.728628 -9.210331 224 181 149 -0.361570 -0.766917 0.530194 
-0.843328 -0.565318 -7.388761 214 129 156 -0.929109 0.081783 0.360650 
-0.799240 -0.930579 -8.488347 223 95 93 -0.709203 -0.332693 -0.621567 
-0.671884 -0.357229 -8.652674 163 126 102 -0.329303 0.775871 -0.538130 
0.630836 0.408229 -8.065923 55 74 97 0.881278 0.454252 -0.130400 
0.752368 -0.090731 -9.305506 205 178 145 0.639720 0.596065 0.485247 
0.069872 -0.496596 -7.017692 223 233 230 0.382879 -0.060033 0.921846 
-0.095511 -0.685906 -9.501250 223 162 139 -0.229819 -0.812851 -0.535217 
0.333931 -0.431402 -8.839074 205 149 97 0.272201 -0.238352 0.932253 
-0.140417 -0.510572 -9.423515 209 162 132 -0.770765 -0.630890 -0.088878 
0.607143 -0.388541 -9.018776 210 175 147 0.680589 0.664423 -0.308771 
-0.802970 -0.865428 -7.771699 169 140 116 -0.581165 -0.517152 -0.628332 
-0.270190 0.087589 -7.127086 207 171 174 -0.422267 0.571302 0.703778 
0.428430 0.385278 -7.894302 55 78 82 0.753737 0.627344 -0.195756 
-0.782510 0.188147 -7.600550 181 117 168 -0.969254 0.188716 0.157905 
-0.612574 0.199716 -9.107180 47 61 73 -0.378210 0.558309 0.738409 
-0.086973 -0.177358 -7.004295 115 169 179 -0.184993 0.272693 0.944148 
-0.869507 -0.690585 -7.612453 202 170 146 -0.768552 0.301988 0.564031 
0.276601 0.155602 -8.913398 187 152 117 -0.040501 0.819804 0.571210 
0.653565 -0.227248 -8.247264 48 90 115 0.803562 0.118992 -0.583206 
0.330114 -0.199800 -8.620571 144 116 144 0.839363 0.293234 -0.457693 
0.357806 0.422569 -9.112998 202 163 130 0.735561 0.378429 0.561909 
0.799406 0.126501 -7.380305 182 174 171 0.162427 -0.733197 0.660333 
0.083632 -0.654498 -9.012871 224 171 136 0.700717 -0.117530 -0.703692 
-0.580762 0.436140 -8.147512 115 136 152 -0.803533 0.309051 -0.508746 
0.013125 0.471561 -7.488920 95 89 88 0.128464 0.989518 0.065968 
0.538172 0.171850 -8.218653 221 168 168 0.571952 -0.020673 -0.820027 
-0.224320 -1.078509 -7.454553 68 135 170 0.003789 -0.935854 0.352366 
-0.815725 -0.893969 -7.706926 234 203 189 0.867355 -0.383961 -0.316653 
0.216409 -0.825724 -8.295841 78 121 132 0.899217 -0.428133 -0.090060 
0.548447 -0.055258 -8.281946 220 222 201 0.739893 0.377296 -0.556961 
0.115963 -0.646569 -8.950697 228 187 153 0.055362 -0.903339 -0.425339 
-0.564421 -0.144254 -8.493894 151 117 83 -0.129510 0.958896 0.252479 
-0.385998 0.386543 -8.430806 58 46 62 -0.934590 0.067227 -0.349318 
-0.220419 -0.746337 -8.755630 218 171 137 0.117916 -0.837056 -0.534260 
-0.757300 0.062415 -7.297037 67 108 144 -0.752879 0.393588 0.527505 
0.988401 -0.177231 -9.679774 204 164 124 0.809726 0.558484 -0.180107 
-0.395250 0.378755 -7.753736 84 91 96 -0.481422 0.672649 -0.561939 
-0.386352 0.258389 -8.608692 119 76 87 0.905821 0.423416 0.014420 
0.010746 -1.050099 -7.603146 191 194 204 -0.350704 -0.770902 0.531712 
0.494448 0.161205 -9.084194 193 150 105 0.425603 0.201756 0.882132 
0.788261 -0.075801 -7.810801 62 106 133 0.384451 0.019417 0.922941 
0.948255 -0.033471 -9.781698 187 151 126 0.178562 0.923742 0.338846 
0.855387 -0.356344 -9.265144 197 161 135 0.720480 0.410525 0.558908 
0.181218 -0.596384 -8.631652 213 161 134 -0.056441 -0.962000 0.267153 
-0.639755 -0.040206 -8.253641 192 188 181 -0.716682 -0.233667 0.657089 
-0.756751 -0.899858 -7.472747 187 152 170 -0.783986 -0.483324 0.389569 
-0.325794 0.550347 -8.080694 173 186 196 0.429968 0.810385 0.398000 
0.326597 -0.950870 -9.349774 203 173 133 -0.623841 -0.402105 0.670174 
-0.011285 -0.210872 -6.995586 65 113 146 0.154180 -0.570316 0.806826 
-0.762524 0.197042 -7.885783 86 153 176 -0.565893 0.769934 0.294902 
0.862147 0.039682 -9.669776 197 169 140 0.552306 0.592842 -0.586086 
-0.163860 -0.550386 -9.485562 215 180 154 -0.497757 0.160996 0.852243 
-0.185189 0.265287 -7.217063 70 130 152 -0.526115 0.693136 0.492711 
0.176713 0.268100 -8.462542 51 68 85 0.827604 0.534276 -0.172106 
-0.148224 -0.646632 -8.824385 215 151 90 -0.329113 -0.867940 -0.371974 
-0.734265 0.168954 -8.654393 102 93 105 -0.730137 0.445367 -0.518215 
-0.479567 0.610011 -8.140621 218 218 219 -0.127547 -0.304770 0.943847 
0.394518 0.419317 -9.151607 193 147 118 0.845943 0.229331 0.481443 
-0.101064 -0.641975 -8.847569 207 159 118 -0.083985 -0.995817 0.035993 
-0.519327 0.395292 -7.729067 86 121 142 0.149472 0.872159 -0.465829 
0.005944 -0.778336 -8.608716 222 166 132 0.828389 0.012323 -0.560018 
0.256649 -1.083020 -9.371068 231 192 160 -0.171068 -0.930443 -0.324056 
0.671389 -0.724277 -7.707691 96 108 121 0.909065 -0.413698 0.049537 
0.436608 -0.040571 -7.085086 167 157 186 0.110214 0.352412 0.929333 
0.212443 0.476013 -7.538181 176 152 191 0.187551 0.869823 0.456325 
-0.274565 0.005302 -7.084433 86 112 135 -0.423064 0.394328 0.815796 
0.554584 -0.853820 -7.868042 144 190 204 0.850946 -0.518523 0.083816 
-0.427138 0.527828 -7.918203 34 80 98 -0.110258 0.777683 0.618912 
0.683062 0.114709 -9.363251 198 167 129 0.670757 0.717017 0.189662 
-0.529798 -0.125033 -7.073841 106 146 160 -0.360822 0.342397 0.867509 
0.673983 -0.270599 -8.213325 157 103 116 0.833696 0.121185 -0.538763 
0.107734 -0.845432 -9.427212 216 185 157 -0.281951 -0.384478 0.879022 
-0.292773 -0.398851 -9.623636 210 175 146 -0.708110 -0.464853 0.531499 
0.443539 -0.787037 -7.277247 201 148 188 0.743600 -0.209574 0.634932 
-0.213644 -0.153547 -7.025795 104 130 156 0.360674 -0.001266 0.932691 
-0.774246 -0.282788 -7.196139 210 217 214 -0.761226 0.396098 0.513461 
-0.446936 -0.222098 -8.731860 149 119 106 -0.809567 0.537132 -0.236833 
0.662402 0.350355 -7.699981 87 136 142 0.832436 0.551682 -0.051940 
-0.273758 -0.768964 -8.772153 200 141 113 0.577665 -0.023550 -0.815934 
-0.064545 0.383338 -8.976766 164 132 111 -0.268139 0.544118 0.795008 
0.404805 0.516365 -9.241434 198 172 121 0.494284 0.412719 0.765079 
-0.166585 0.385718 -7.333513 141 193 198 -0.308848 0.829342 0.465623 
0.339114 -0.669740 -7.226727 44 44 59 0.921853 0.079633 0.379269 
1.038434 -0.920504 -9.452209 206 159 130 0.959294 -0.228907 -0.165396 
0.438772 0.566163 -9.331626 200 171 133 0.687229 -0.117259 -0.716915 
0.484479 0.419301 -9.286634 196 158 118 0.841470 -0.233657 -0.487167 
-0.868502 -0.803334 -7.717291 126 111 114 -0.992058 0.123590 -0.023382 
0.306055 -0.361422 -8.693837 79 73 69 0.549204 -0.696104 0.462400 
0.470877 -0.497250 -8.432844 72 132 149 0.639575 -0.301261 -0.707238 
0.857633 0.144434 -7.502667 92 133 142 0.825060 0.109135 -0.554405 
0.697529 -0.752368 -9.144659 200 163 133 -0.209425 0.628274 0.749275 
0.014731 0.683097 -9.082386 191 160 134 0.222027 0.765451 0.603977 
0.535788 0.327848 -7.513876 62 84 95 0.563202 0.650624 0.509403 
0.803956 0.220839 -7.331729 88 137 166 0.756551 0.168968 0.631728 
-0.624799 -0.982824 -8.738701 244 218 198 0.724501 -0.445974 -0.525553 
0.238509 -0.993491 -7.348480 206 147 194 0.193050 -0.807163 0.557870 
-0.473314 -0.943576 -7.224956 141 140 158 -0.247419 -0.539965 0.804501 
-0.807698 -0.718709 -8.646544 199 164 132 -0.831916 0.043198 -0.553217 
-0.349922 0.048626 -7.140747 84 136 159 -0.632866 0.322098 0.704084 
0.474497 -0.392258 -7.205422 165 191 189 0.702270 -0.408143 0.583297 
0.604373 -0.663969 -8.158639 78 101 108 0.398002 -0.751782 -0.525756 
-0.553825 0.171522 -8.292791 100 86 105 -0.660901 0.745520 -0.086078 
-0.140030 -0.756621 -7.005386 212 224 219 0.322393 -0.431414 0.842582 
-0.043421 0.214418 -8.580976 67 86 101 0.177681 0.974096 0.139877 
0.830635 0.018196 -7.940383 102 131 151 0.823227 -0.043328 -0.566056 
0.485395 -0.028457 -8.972222 200 167 128 0.212585 -0.072500 0.974449 
0.254137 0.212502 -7.181481 91 136 164 0.254644 0.656380 0.710156 
-0.243708 0.604118 -8.672755 69 107 127 0.198011 0.966758 0.161773 
-0.432326 -0.011671 -7.117344 102 158 178 0.742018 0.607976 0.282445 
0.581556 -0.675118 -9.065557 210 179 145 0.371122 -0.924432 0.087720 
-0.731062 -0.783817 -8.803890 201 165 145 -0.594143 0.046572 -0.803010 
0.420818 0.449537 -7.912195 152 85 104 0.858740 -0.071679 0.507373 
-0.550925 -1.005935 -7.931328 211 148 123 -0.918860 0.306287 -0.248768 
-0.215091 0.381055 -7.382596 89 115 142 -0.464233 0.493971 0.735174 
0.960037 -0.585236 -9.309268 210 179 157 0.439318 -0.006557 0.898308 
-0.544378 0.496093 -8.144673 102 83 95 -0.764941 0.626681 -0.148780 
-0.235584 -1.097105 -8.282277 230 198 172 0.602883 -0.776880 -0.181628 
0.151671 -0.391489 -7.032518 199 118 153 0.426578 -0.329699 0.842217 
0.346450 -0.854689 -8.182179 48 98 122 0.395581 -0.676957 -0.620681 
0.691272 0.085515 -9.347790 202 162 122 0.926891 0.192692 0.322091 
0.295427 -0.031848 -8.821277 169 132 78 0.903317 -0.223275 0.366288 
0.596247 -0.666169 -7.576615 55 74 93 0.310100 0.921727 0.232932 
0.069821 -1.035754 -7.900184 162 99 130 0.270856 -0.960076 0.069939 
0.513055 -0.737348 -8.185609 44 87 109 0.495679 -0.556169 -0.667067 
0.834383 -0.125751 -9.440152 212 174 143 0.620791 0.446769 0.644217 
-0.545056 0.358227 -8.294880 117 103 137 -0.693322 0.506209 -0.512891 
-0.339119 0.601460 -8.318804 16 29 23 0.988922 0.146129 0.026054 
0.186162 -0.603827 -8.868848 213 164 132 0.618575 -0.638691 0.457645 
-0.371629 -1.110180 -8.328563 252 229 209 0.519514 -0.853977 0.028786 
-0.359733 0.053065 -8.500373 36 42 52 -0.886085 -0.414293 0.207883 
0.375377 -0.002113 -8.893423 177 129 95 0.719141 0.143225 0.679943 
-0.211967 -0.666924 -8.797037 213 157 108 0.753472 -0.229317 0.616193 
0.191830 -0.131264 -7.028818 82 137 162 0.039012 0.110347 0.993127 
-0.182801 -1.080565 -7.297011 82 163 203 0.086532 -0.905156 0.416179 
-0.445755 0.537370 -8.240112 43 63 77 -0.462712 -0.822775 -0.330058 
-0.508029 0.085727 -8.929585 170 186 180 0.849100 -0.452956 -0.271773 
0.206709 0.418497 -8.063685 68 85 82 0.353336 0.387580 0.851431 
-0.868654 -1.042562 -8.200045 216 170 147 -0.845078 0.382706 -0.373334 
-0.497091 0.408657 -8.303640 54 84 111 -0.562081 0.528322 -0.636350 
0.257556 0.365750 -8.233092 103 132 142 0.362223 0.853478 -0.374660 
-0.171693 -0.630946 -9.586399 213 177 144 -0.814457 -0.567918 0.118867 
0.465154 0.539020 -9.368711 189 142 104 0.735800 0.541562 0.406583 
-0.528491 -0.158438 -8.554753 162 122 99 -0.917604 -0.397326 -0.011648 
-0.804613 -0.734505 -7.355024 104 124 133 -0.693499 -0.073838 0.716664 
-0.644047 -0.016816 -8.326584 230 232 230 -0.479969 0.831015 0.281147 
-0.299821 0.394360 -7.968576 16 16 22 -0.476897 0.864284 -0.159944 
0.438756 0.417502 -7.589808 63 76 96 0.303377 0.792592 0.528924 
-0.914951 -0.565609 -7.541211 155 138 168 -0.794566 0.151132 0.588068 
-0.135071 -0.591417 -6.955465 59 100 111 0.623799 0.778673 -0.067399 
-0.761490 0.317311 -7.711809 167 196 204 -0.995934 -0.081634 -0.038096 
-0.812191 0.196630 -8.751536 47 45 52 -0.076918 0.977956 0.194126 
0.854358 0.110658 -9.721528 196 173 147 0.754504 -0.323359 0.571106 
0.522324 -0.927490 -7.650096 93 141 163 0.346916 -0.933593 0.089743 
-0.461119 -1.061895 -8.541125 241 210 184 -0.353909 -0.846576 -0.397563 
-0.666306 0.255056 -8.586473 135 151 154 -0.245020 0.791242 0.560268 
-0.305088 -0.998934 -7.171995 235 165 174 -0.220104 -0.808076 0.546413 
-0.473864 -0.396591 -10.003047 189 184 170 -0.202915 -0.695487 0.689291 
1.065095 -0.849300 -9.474773 215 177 153 0.700725 0.162641 0.694645 
-0.791809 -0.762125 -7.346626 199 197 209 -0.695470 -0.064795 0.715628 
-0.456314 0.391738 -8.375855 26 20 22 -0.844356 0.197167 -0.498185 
0.524641 -0.840629 -7.469619 102 136 164 0.637277 -0.711118 0.296968 
0.132755 -0.786990 -7.084611 73 152 189 0.196200 -0.650396 0.733819 
1.065360 -0.555076 -9.485196 216 179 153 0.941724 -0.317480 -0.111185 
-0.259709 0.392207 -8.174224 37 42 42 0.165483 0.642194 0.748467 
0.093701 0.543074 -7.639845 107 126 138 0.234943 0.788848 0.567909 
-0.176033 0.427076 -7.523382 113 93 112 -0.361830 0.915216 0.177367 
-0.265316 -1.115403 -7.508320 101 188 208 -0.043547 -0.813341 0.580155 
0.452424 0.572640 -9.368011 194 160 130 0.303802 0.737806 0.602782 
-0.283713 0.465371 -8.140471 11 16 24 0.885976 0.011955 0.463577 
0.061716 0.278098 -7.193177 160 99 130 -0.029560 0.722112 0.691144 
0.235956 -0.805486 -9.323087 204 160 123 -0.287644 -0.564164 0.773938 
