ply
format ascii 1.0
comment Created by CloudCompare v2.13.alpha
comment Created 2023-10-15T13:21:01
obj_info Generated by CloudCompare!
element vertex 672
property float x
property float y
property float z
property uchar red
property uchar green
property uchar blue
property float nx
property float ny
property float nz
end_header
73.204788 286.971588 -60.973862 155 146 117 0.801391 -0.203795 -0.562353 
77.064583 289.987732 -56.285057 195 183 141 0.821218 -0.124872 -0.556783 
-81.036079 139.935333 28.309500 56 52 41 -0.673869 0.583574 0.453147 
-42.199047 196.095184 -66.882957 116 116 104 -0.503323 0.255533 -0.825450 
-131.206650 231.618271 -2.219168 120 112 89 -0.943650 0.294636 -0.150712 
-62.294403 263.199677 -34.083359 106 110 85 -0.678413 0.504203 -0.534355 
-112.262146 179.175629 -10.566100 102 82 57 -0.028441 0.275753 -0.960808 
75.483353 288.653656 -6.631350 85 109 73 -0.395913 0.895553 0.203070 
74.569992 287.923523 -5.285890 82 107 77 -0.370558 0.906929 0.200418 
72.836372 286.559998 -1.997813 99 134 114 -0.329506 0.923464 0.196572 
71.199898 285.311981 1.297197 62 80 64 -0.296828 0.935078 0.193705 
75.716858 289.908875 -10.967448 82 97 74 -0.411591 0.886617 0.210959 
84.094505 296.873322 -42.429855 88 78 53 0.198383 0.945399 -0.258582 
-51.314262 270.563568 40.872879 110 110 72 -0.619033 0.649067 0.442166 
68.888290 276.807983 31.323051 75 67 46 -0.281482 0.929314 0.239047 
66.691765 275.718323 32.802082 87 75 51 -0.221461 0.944992 0.240718 
-46.209000 195.284760 -64.777649 84 63 36 -0.575173 0.200927 -0.792972 
6.850506 90.330925 55.298592 58 61 52 0.085680 0.620093 0.779836 
-63.608181 206.727814 -45.621452 110 88 67 -0.772371 -0.073628 -0.630890 
-63.609589 203.773224 -46.366875 146 137 108 -0.843122 0.434808 -0.316366 
-37.105743 106.181084 72.298187 55 49 35 0.462622 0.693098 -0.552808 
35.073574 232.151718 -88.705399 110 111 77 0.075728 -0.222219 -0.972052 
-96.545837 74.694412 -19.954519 44 40 28 0.676314 0.276601 0.682709 
24.775826 71.366035 59.085880 124 117 91 -0.639269 -0.758480 -0.126662 
-94.965622 105.758087 -1.124210 21 26 20 0.085078 -0.996164 -0.020462 
-89.876907 101.256615 12.525061 18 8 6 -0.369802 -0.907957 0.197132 
-98.700287 170.974258 -14.426940 36 29 19 -0.006122 0.292617 -0.956210 
-52.957100 85.260712 -45.036976 31 49 33 -0.387427 -0.680882 0.621531 
-23.260578 251.057648 70.268311 124 114 87 -0.096621 0.316336 0.943714 
-22.315533 252.662216 69.798050 142 137 108 -0.090985 0.376163 0.922075 
70.950386 212.081711 48.202072 104 119 90 0.803898 -0.457307 0.380287 
71.768181 213.703751 49.294090 45 53 38 0.629146 -0.675382 0.384753 
-36.778702 291.309723 18.422466 100 104 90 -0.388173 0.858312 0.335592 
8.944491 49.759724 -38.868656 66 74 53 -0.682310 -0.032491 0.730340 
-71.810989 231.767044 -37.389248 85 76 45 -0.765849 0.302183 -0.567592 
41.462124 215.132767 71.248703 66 75 58 0.015313 0.747552 0.664027 
-72.135735 233.027481 -36.075291 102 85 55 -0.714207 0.382552 -0.586142 
80.950867 262.558075 -50.085358 113 122 103 0.762130 -0.032401 -0.646613 
-52.941223 137.280945 -32.824451 113 92 71 -0.792643 0.282074 -0.540510 
-56.932346 135.435486 -27.421000 149 154 124 -0.823112 0.333352 -0.459742 
-55.924038 134.620880 -29.702745 124 126 112 -0.807824 0.331700 -0.487233 
-89.930672 104.504051 4.138639 7 3 2 0.014212 -0.921177 -0.388884 
-44.638199 170.036896 -50.219742 113 96 78 -0.131869 -0.494145 -0.859320 
-62.269485 224.660843 -49.176643 80 64 41 -0.529449 -0.040089 -0.847394 
-78.227272 91.694328 71.428062 118 111 83 -0.257812 -0.615270 0.744967 
-62.188023 228.065109 -49.015820 61 45 20 -0.546882 0.075285 -0.833818 
41.220264 45.376022 45.976788 169 181 143 -0.683033 -0.698592 0.213156 
-51.957439 104.599022 -33.467072 6 5 3 -0.157843 -0.978127 -0.135471 
-50.835838 104.585091 -35.019108 6 5 3 -0.240601 -0.952996 -0.184147 
63.461926 217.432159 -62.318394 72 55 29 0.287877 0.043999 -0.956656 
-46.204964 103.806976 -34.815132 8 4 1 0.211861 -0.898582 0.384272 
19.659702 33.242683 -45.199314 63 58 38 -0.485237 -0.865363 0.125269 
54.252651 289.724670 -21.923988 47 34 17 0.410299 0.837890 -0.359994 
56.683720 287.953918 -22.618979 42 48 38 0.319587 0.909146 -0.267053 
-46.325268 87.584892 -63.353352 23 23 15 -0.463831 0.853144 0.238759 
-46.745964 88.621292 -66.815170 62 63 45 -0.447457 0.893569 -0.036280 
-94.278725 114.304138 -2.102143 41 37 28 -0.167514 -0.028882 -0.985447 
-92.736160 112.069885 -3.505472 50 48 36 -0.205992 0.849530 -0.485660 
-13.750984 92.485207 67.611374 65 68 51 -0.429447 -0.714640 -0.552146 
-62.571762 60.579346 -65.912018 102 89 70 -0.968996 -0.222247 -0.107948 
-125.454994 220.392212 -14.874054 117 110 84 -0.762304 -0.253054 -0.595698 
-126.161812 214.049088 20.930695 73 67 53 -0.851754 -0.490766 -0.183478 
-63.570396 266.854706 28.199585 103 93 68 -0.771761 0.478068 0.419329 
-53.467026 110.423820 52.523075 151 131 98 -0.256471 0.763119 0.593188 
61.762947 34.963211 22.772024 183 178 136 0.780992 0.589980 0.204876 
-64.889252 262.911621 -30.393110 121 110 88 -0.790097 0.473412 -0.389394 
-32.687027 295.999542 -11.350875 122 109 77 -0.385523 0.920151 0.068508 
35.424965 267.923553 54.833160 105 112 78 0.514438 0.484471 0.707560 
70.401001 20.005396 25.255568 200 187 143 0.797812 0.548008 0.251365 
33.849319 266.841583 56.250095 115 119 68 0.309080 0.439545 0.843368 
-9.493507 14.416214 -67.270035 73 75 51 -0.614584 0.325940 0.718366 
41.511681 282.696228 -50.402695 104 97 69 0.097342 0.878904 -0.466962 
19.487997 39.362854 -25.654846 107 100 74 -0.874496 -0.452628 0.174313 
19.300499 40.224552 -24.061195 94 86 65 -0.890139 -0.447159 0.087760 
65.773605 137.213516 11.585981 183 182 151 0.672877 -0.423663 0.606420 
67.157097 138.122238 10.557022 129 131 91 0.723998 -0.404053 0.559078 
66.971634 142.299454 13.735542 186 195 168 0.688180 -0.394424 0.608965 
29.181030 66.624001 83.792999 177 160 117 0.421182 -0.049788 0.905609 
65.320587 198.533585 51.669907 52 46 22 0.718565 -0.652526 0.240570 
63.875198 197.603897 52.020954 92 91 63 0.634012 -0.750683 0.185752 
38.304180 284.248901 -46.793804 152 146 112 0.147148 0.813028 -0.563323 
38.629379 283.078430 -48.627735 108 102 78 0.121456 0.878770 -0.461533 
16.138855 89.319954 39.158939 14 15 10 0.261863 0.680843 -0.684018 
10.292791 255.701218 -74.303925 135 129 113 -0.413518 0.894754 0.168577 
52.490044 196.668762 -63.871609 105 118 90 0.426463 0.119635 -0.896558 
15.142137 103.074585 -0.651405 3 3 3 -0.426811 -0.839551 -0.336133 
9.535059 77.490974 -44.314636 178 174 136 0.659573 -0.043972 -0.750353 
11.100344 78.316010 -42.704067 122 126 103 0.719024 -0.046986 -0.693395 
-6.023348 256.793121 -69.554604 125 110 91 -0.431084 0.399033 -0.809283 
89.656204 261.204590 15.831807 50 52 39 0.609322 0.578940 0.541807 
-94.687088 126.664482 18.740379 56 52 43 -0.713333 0.699037 -0.050033 
34.223808 55.136395 27.708868 149 143 117 0.627240 0.666960 -0.402162 
32.822529 57.831314 29.968836 115 118 101 0.325865 0.640381 -0.695503 
-84.348312 152.394669 21.985088 12 11 7 0.254943 -0.873444 0.414848 
31.697659 54.422901 21.409708 45 42 35 -0.182946 0.674900 -0.714871 
-94.990967 126.971497 19.896420 64 61 52 -0.742672 0.609086 -0.278303 
-100.495422 122.621719 20.536093 35 31 20 -0.715287 0.665420 -0.213495 
-52.554546 144.298935 -29.636187 150 138 122 -0.858302 0.198529 -0.473185 
61.426121 198.273911 -54.744770 83 74 57 0.480426 0.006654 -0.877010 
60.211132 199.156296 -55.600426 99 95 70 0.592307 -0.004104 -0.805702 
84.387596 237.788071 -48.996540 112 113 79 0.689751 -0.692865 -0.210195 
-11.758155 94.911568 88.840538 186 172 133 0.192534 0.725468 0.660777 
-17.631649 166.824020 61.021420 72 67 47 -0.294902 -0.565893 0.769934 
-53.408318 216.188690 -56.188984 130 114 98 -0.582520 -0.180992 -0.792409 
-54.587574 214.062149 -55.087997 130 112 90 -0.676912 -0.052951 -0.734157 
-45.270763 283.378387 -29.714520 97 77 50 -0.504403 0.747568 -0.432111 
-10.974174 239.453049 -86.754890 111 112 78 -0.274984 -0.064627 -0.959274 
-14.669628 235.893387 -85.009895 107 98 69 -0.246531 -0.221740 -0.943427 
61.912403 287.586639 -6.185086 50 58 45 0.561879 0.821874 0.093887 
-47.664291 220.363922 -60.714375 78 56 33 -0.460533 -0.118341 -0.879718 
91.426941 236.399643 -20.728758 179 193 157 0.977194 0.079496 -0.196906 
-128.685516 223.838425 4.668288 92 84 61 -0.740086 -0.082878 0.667386 
-129.377640 224.563416 3.497037 192 191 171 -0.791571 -0.020867 0.610720 
-27.668911 179.749878 -67.095978 96 107 93 -0.401186 -0.862319 -0.308959 
9.134995 298.579224 -20.315052 70 64 48 -0.064527 0.992817 -0.100753 
-121.213844 177.983398 22.980663 87 89 67 -0.572520 0.040594 0.818885 
-12.626236 161.926315 55.045021 43 43 33 -0.013164 -0.970549 0.240543 
-9.869957 161.525009 54.429127 63 56 40 -0.060023 -0.985088 0.161239 
-93.025230 225.041779 38.943195 75 71 60 0.237193 0.553450 0.798394 
39.962753 281.219604 41.535107 90 81 38 0.286964 0.710196 0.642864 
38.104126 278.424255 45.327312 80 77 46 0.304496 0.662157 0.684712 
-105.524773 219.115891 -18.665058 27 29 26 0.269366 -0.862884 -0.427637 
33.305492 68.812904 46.140133 101 105 78 0.867168 0.386937 -0.313526 
60.365959 190.379242 -59.081985 166 178 132 0.691039 0.179272 -0.700233 
77.871506 179.350098 14.786325 74 87 61 0.921977 0.038142 0.385363 
74.660866 179.839325 21.015074 149 156 112 0.844128 -0.054595 0.533355 
-57.067547 57.816254 -76.041817 27 24 17 0.357613 -0.856104 0.373094 
-36.954212 245.850647 68.912651 118 109 66 -0.402368 0.219608 0.888748 
-10.336791 103.046753 35.638859 52 46 32 -0.305637 -0.766492 -0.564868 
-12.252842 104.577469 34.489189 38 38 26 -0.262328 -0.947372 -0.183494 
49.985172 274.913239 -81.482651 128 125 94 0.598526 -0.263730 -0.756448 
20.179865 284.440063 45.560638 97 80 50 -0.012469 0.771670 0.635901 
18.920851 33.798714 -32.623985 71 72 56 -0.572072 -0.713854 0.403913 
-50.485641 161.148514 -39.981495 127 99 75 -0.378009 -0.444998 -0.811841 
-19.201973 144.837402 39.171619 52 46 32 -0.836380 0.009520 0.548067 
76.176521 248.699966 45.325779 74 89 68 0.103199 0.565415 0.818325 
-107.307610 235.466248 31.769968 116 121 99 -0.308070 0.685495 0.659689 
-105.432190 236.115372 31.413988 106 109 92 -0.172688 0.818393 0.548098 
-115.318275 234.090775 -23.194010 98 83 52 -0.326688 0.126066 -0.936687 
-115.604553 236.479797 -21.825382 122 125 96 -0.387493 0.544453 -0.743922 
-110.188400 150.995178 7.417766 18 19 13 -0.082695 -0.876011 -0.475148 
-35.943378 71.724945 -77.833656 36 38 27 0.875103 0.483786 -0.012061 
-36.459492 100.340942 62.636677 26 32 18 0.063571 -0.834903 -0.546713 
-38.790691 101.869850 59.678680 22 25 16 0.127551 -0.875661 -0.465777 
-18.997400 144.098969 39.665882 48 39 24 -0.821112 -0.040566 0.569323 
13.457122 37.138092 -36.104115 51 58 40 -0.676396 -0.445921 0.586210 
13.133442 38.905430 -35.522202 67 74 56 -0.703784 -0.272896 0.655908 
14.937197 179.073288 63.776394 69 82 52 0.335852 -0.449380 0.827805 
51.042038 41.458679 63.812851 224 223 205 0.785839 0.520158 0.334502 
54.975658 39.781322 57.840336 193 178 137 0.786644 0.489431 0.376362 
52.557510 39.011787 64.108345 205 198 169 0.799529 0.535637 0.271746 
-56.582409 248.490463 56.354614 159 149 98 -0.717410 0.247546 0.651187 
-60.731834 143.270340 41.871189 105 90 59 -0.668265 0.567774 0.480682 
7.091059 38.956207 -49.265839 33 35 22 -0.326981 -0.864275 -0.382246 
-29.702801 64.869621 -68.203712 37 29 16 -0.205303 -0.855678 0.475044 
67.876724 202.481354 45.615005 82 83 65 0.640576 -0.742451 -0.196032 
6.884974 37.679523 -46.353249 80 82 61 -0.415120 -0.884900 -0.211253 
10.759296 35.889671 -44.672466 45 49 34 -0.357162 -0.909534 -0.212562 
37.771751 190.640350 58.277027 64 70 58 0.454073 -0.628329 0.631680 
11.052855 36.998592 -38.703938 29 33 18 -0.647445 -0.509547 0.566724 
9.690571 36.226486 -41.917728 79 81 59 -0.553063 -0.802634 0.223382 
8.958543 79.891891 32.765759 13 13 5 0.786712 0.135332 0.602303 
11.968800 79.997108 29.601389 49 51 40 0.726204 0.035390 0.686567 
-11.683734 163.379410 60.434658 39 36 21 -0.009266 -0.888217 0.459331 
82.859764 285.199677 -43.878857 182 183 152 0.862245 -0.257001 -0.436445 
80.342621 280.777283 -46.179493 154 154 116 0.843859 -0.279230 -0.458183 
78.150177 13.450215 31.603874 135 148 128 0.478315 0.622649 -0.619292 
-69.993912 248.967880 -31.524300 85 79 57 -0.707764 0.457965 -0.537901 
15.526281 64.828445 -11.149507 52 62 53 -0.922987 0.024734 0.384035 
-1.830748 90.646133 53.129337 74 76 65 0.412778 0.898400 0.149971 
-4.936856 92.498482 51.903561 32 30 18 0.524002 0.842198 -0.126986 
76.653595 4.450458 6.374129 179 156 102 0.895875 -0.334282 -0.292682 
16.877533 89.542992 39.648079 32 35 26 0.671852 0.628933 -0.391226 
-117.882492 241.795471 -10.782440 88 74 47 -0.418744 0.703424 -0.574325 
-25.904449 295.991394 7.416097 117 102 95 -0.201933 0.979315 0.012840 
9.064104 2.190787 -55.429073 22 19 10 -0.060354 -0.227867 0.971820 
-8.728128 287.095154 41.656582 97 101 64 -0.068816 0.852472 0.518224 
87.780266 261.131958 -33.975990 105 119 104 0.972350 -0.224956 -0.062693 
79.844437 182.577423 7.950202 132 142 107 0.963293 0.064220 0.260656 
-17.779606 131.138214 -61.088829 67 61 35 0.408033 -0.030371 -0.912462 
-15.322614 133.410019 -59.932850 69 53 28 0.477692 -0.045169 -0.877366 
16.526333 103.236107 -19.036102 1 1 1 -0.365875 -0.906733 0.209691 
-18.645464 137.590790 -60.415852 119 128 111 0.131506 0.093594 -0.986887 
-21.631008 156.430374 42.571232 46 43 36 -0.308134 -0.833681 0.458290 
91.545845 290.976257 10.358461 108 101 59 0.385346 0.855808 0.345109 
93.561592 290.462555 7.687840 87 66 37 0.790757 0.541377 0.285683 
-123.563660 207.221222 33.543755 100 94 72 -0.816848 -0.004091 0.576839 
94.645554 288.997040 2.843151 195 191 154 0.993174 -0.095823 0.066512 
94.228729 292.088806 2.577703 98 82 57 0.831192 0.502403 0.238142 
-47.452919 244.744781 64.647255 142 131 99 -0.523978 0.267464 0.808647 
36.877506 105.140038 -9.440361 54 60 48 0.140887 -0.981309 0.131086 
34.966068 105.092087 -7.634901 56 58 45 0.230927 -0.959337 0.162309 
10.959167 28.734383 -61.725372 189 182 153 0.395790 0.060375 -0.916354 
8.705972 29.584959 -62.984486 177 175 150 0.484062 0.128602 -0.865532 
-126.754066 213.656525 5.059744 119 119 95 -0.770741 0.142176 -0.621083 
11.377107 37.208775 -53.504845 90 80 55 -0.691265 -0.574666 0.438078 
-67.596054 141.464813 34.417206 28 27 22 -0.446607 -0.230071 0.864644 
-51.355846 285.037598 10.710509 89 78 48 -0.538548 0.835977 0.105399 
-19.576738 134.456345 -61.633400 87 86 40 0.244259 0.187580 -0.951394 
17.096241 298.407318 18.006451 87 67 32 -0.012368 0.988335 0.151792 
10.709357 94.688530 45.386250 33 39 27 0.716412 0.400202 -0.571482 
10.570557 94.121185 44.585815 31 35 21 0.574218 0.634839 -0.516965 
64.699921 165.230133 26.746014 117 138 105 0.521968 -0.288581 0.802664 
65.080681 165.285110 26.514576 107 133 94 0.527862 -0.288354 0.798883 
68.612389 172.608139 26.442862 130 126 89 0.620305 -0.216096 0.754005 
8.675308 46.034393 -61.837818 91 96 76 0.777692 0.596691 -0.197874 
54.157349 36.264084 76.681892 121 127 91 0.678214 -0.026679 0.734380 
69.344505 162.187454 -47.060326 94 126 105 0.837183 -0.190884 -0.512531 
68.622467 160.535919 -47.546230 146 161 140 0.825043 -0.192258 -0.531358 
21.569637 263.015411 62.783733 142 139 94 0.400339 0.448572 0.799069 
-41.154797 258.511078 -57.459335 89 82 54 -0.434500 0.252828 -0.864458 
-44.797119 257.455505 -55.538651 92 55 28 -0.515225 0.305964 -0.800580 
80.870857 187.939209 0.942718 134 142 118 0.974833 -0.222785 -0.008251 
48.193150 53.299240 54.299850 125 130 100 0.801181 0.566168 0.193810 
48.784428 52.992462 52.506401 177 160 116 0.748056 0.657648 -0.088950 
-98.937935 240.310577 -5.212903 36 23 6 0.448225 0.886553 -0.114531 
-98.848473 240.616119 -3.732693 77 65 53 0.435771 0.895211 -0.093280 
80.391533 185.492737 0.022272 108 127 107 0.995924 0.069024 0.058068 
81.013504 187.930374 2.904566 122 124 102 0.932136 -0.361283 0.024428 
29.080811 29.660389 -29.225647 33 31 19 -0.474429 -0.879528 -0.036704 
31.478720 28.595423 -29.580563 57 48 33 -0.662211 -0.747658 -0.049844 
-64.589226 97.400085 77.853432 131 143 119 -0.711182 0.199875 0.673996 
25.479061 266.899963 58.610004 133 145 109 0.267538 0.409620 0.872144 
25.489737 31.962849 -34.039894 46 40 26 -0.331272 -0.943433 -0.013855 
-110.931023 160.247650 29.850330 86 94 81 -0.122286 0.108039 0.986597 
-42.810863 260.641113 -55.175301 89 69 42 -0.511578 0.406974 -0.756743 
-110.036209 160.509460 29.884472 71 79 66 -0.232668 -0.015511 0.972432 
-51.822018 213.027740 -62.695721 66 53 34 -0.681148 0.722699 -0.117235 
-48.841713 215.451691 -64.572174 60 52 33 -0.662171 0.744029 -0.089167 
-69.905800 76.200020 -51.918629 113 94 64 -0.937787 -0.149225 -0.313508 
-0.172214 103.647888 -32.159725 4 4 4 -0.163514 -0.814567 0.556546 
-98.682152 125.251617 14.988909 67 51 35 -0.385247 0.323853 0.864120 
19.066313 74.916153 87.314018 84 69 46 0.630423 0.026559 0.775797 
-87.106773 227.662506 -27.045652 77 61 36 -0.484566 0.477951 -0.732638 
61.512947 35.840359 42.461395 153 148 116 0.467409 0.641640 -0.608134 
-36.141354 106.049614 3.355478 7 8 3 -0.013324 -0.999268 -0.035871 
-33.386871 105.936485 4.861140 6 7 2 -0.012908 -0.999904 0.004965 
15.355140 203.577362 -85.660805 77 72 50 0.133051 -0.524893 -0.840705 
-88.400177 79.683685 -23.226521 54 55 37 0.547173 0.026187 0.836610 
15.157843 188.411652 -76.384338 135 129 113 0.546480 -0.597236 -0.587085 
-87.803413 82.081367 -23.656395 52 54 41 0.593125 0.009633 0.805053 
-87.478020 83.937866 -23.930389 88 92 75 0.599071 -0.029325 0.800158 
24.984550 10.509480 -55.667229 136 139 112 0.160590 -0.308827 -0.937463 
-93.822601 239.017197 20.052931 122 124 102 0.048997 0.920354 0.388005 
-21.199629 161.750671 -58.912037 96 93 74 0.348522 0.075535 -0.934252 
9.909490 102.243736 -29.675543 3 3 1 -0.275577 -0.903361 0.328629 
-31.953840 250.075836 -65.752472 124 146 133 -0.317408 0.250738 -0.914540 
-85.664459 212.036575 40.680485 68 63 43 0.098320 0.011885 0.995084 
-102.237801 94.005104 -22.312597 98 101 84 0.324291 0.528771 -0.784370 
-106.885582 160.047211 38.480251 103 96 52 -0.090595 -0.550759 0.829733 
-108.105797 160.847778 38.279514 128 119 78 -0.520959 -0.605257 0.601885 
62.251404 143.652191 -48.186356 164 182 156 0.742499 -0.346066 -0.573527 
63.541828 150.770432 -50.562199 170 174 139 0.722279 -0.286669 -0.629392 
79.699318 220.581192 -51.732174 84 94 70 0.752088 0.209344 -0.624931 
81.341705 220.482285 -49.726627 93 96 75 0.782314 0.177730 -0.596989 
5.371155 284.751556 46.747837 91 77 40 -0.004128 0.777495 0.628876 
-89.176430 236.098953 28.058290 59 70 53 0.233801 0.835877 0.496636 
-91.343407 236.259781 29.083773 47 52 45 0.252882 0.907744 0.334740 
-84.691628 103.456207 34.731445 51 52 38 0.303660 -0.952780 -0.001229 
13.223323 84.112503 49.139744 38 38 28 -0.496044 -0.596934 -0.630564 
-49.079868 191.221771 -62.434372 112 87 67 -0.628881 0.001376 -0.777500 
-0.651810 216.161209 -88.790001 154 145 116 -0.391998 0.262834 -0.881621 
-48.381603 191.849579 -63.070019 69 43 20 -0.620761 0.012443 -0.783901 
-75.342758 247.330551 32.557526 83 101 77 -0.688649 0.514392 0.511041 
-47.375034 162.212814 39.713310 22 18 7 -0.154397 -0.887422 0.434332 
-61.346394 275.363983 19.993273 111 107 78 -0.705184 0.677164 0.210154 
-11.399707 33.460152 -71.128693 128 127 107 -0.567215 -0.197226 0.799605 
-17.005867 35.512836 -75.539360 60 67 49 -0.669331 -0.199408 0.715705 
-59.182056 276.801483 21.798899 102 101 71 -0.495708 0.809287 0.315163 
-16.361490 32.411835 -75.622467 86 90 65 -0.726673 -0.226597 0.648536 
9.991086 294.587341 -34.643497 90 78 64 -0.044143 0.908284 -0.416018 
9.068768 292.379608 -38.591496 44 32 10 -0.055982 0.888891 -0.454686 
88.847549 207.712463 9.549022 102 96 70 0.845664 -0.514433 0.142165 
-8.403540 31.229622 -69.558815 79 85 57 -0.598461 -0.168175 0.783302 
-33.547295 244.203781 -65.462151 82 73 58 -0.337031 0.460451 -0.821216 
24.327906 70.671967 16.051092 143 142 121 0.885513 0.003971 0.464597 
9.086335 77.120834 34.250061 10 9 4 0.900788 0.382726 0.205188 
42.088161 178.062546 41.361366 59 68 41 0.448691 -0.426013 0.785614 
45.837360 179.674591 40.102463 120 119 99 0.454641 -0.350089 0.818987 
-30.992712 172.662857 -57.448280 65 37 13 -0.346605 -0.584183 -0.733890 
-18.272722 260.985107 -63.514244 90 74 58 -0.551095 0.457859 -0.697610 
-16.478859 91.437103 41.297260 33 35 21 -0.254598 -0.653099 -0.713191 
-17.305880 93.800018 39.919685 25 27 16 -0.189695 -0.439682 -0.877893 
-59.956886 145.335968 37.522850 72 66 50 -0.708102 0.616944 0.343470 
82.226410 174.978806 -31.685112 114 110 85 0.361841 -0.016622 -0.932092 
56.073254 119.615982 -40.755398 147 152 122 0.300625 -0.551941 -0.777808 
55.362839 119.744499 -41.124573 123 130 99 0.297727 -0.552467 -0.778549 
52.953793 125.918503 -45.976746 148 162 137 0.345744 -0.482766 -0.804610 
46.119331 125.440010 -48.504002 65 71 45 0.278240 -0.526613 -0.803281 
48.248024 125.810867 -47.991417 103 112 81 0.294765 -0.509140 -0.808634 
44.272236 128.422745 -50.889221 86 96 69 0.239511 -0.480548 -0.843628 
45.629852 130.193359 -51.492924 145 146 104 0.269891 -0.464213 -0.843603 
5.017985 181.045746 -74.106224 47 49 28 0.370074 -0.836210 -0.404719 
3.269123 179.866730 -73.551010 118 102 79 0.393659 -0.759549 -0.517800 
-28.028883 283.281128 40.840240 82 81 60 -0.090749 0.889336 0.448158 
-28.316868 283.001190 41.497166 109 109 75 -0.102314 0.892795 0.438689 
-104.019714 112.696930 -12.033734 52 43 28 0.368922 0.898053 -0.239579 
-25.281351 205.613098 -73.659363 127 121 105 -0.705877 -0.058943 -0.705877 
-90.966805 120.614197 -5.275997 35 30 26 -0.552312 -0.589471 -0.589471 
9.660597 166.867325 54.864559 70 59 39 0.469413 -0.831220 0.297867 
79.118607 7.010399 8.551822 135 123 85 0.743113 -0.634516 -0.212540 
15.371257 27.171009 -60.636982 171 163 124 0.145677 -0.153148 -0.977407 
95.117081 263.225708 2.613176 131 121 96 0.990421 -0.130767 0.044347 
81.256569 8.803654 12.602993 152 150 112 0.985809 -0.167869 -0.001127 
46.838921 4.077187 -39.811531 33 30 23 -0.563958 -0.437525 0.700373 
43.318539 3.252057 -42.071381 16 15 10 -0.460557 -0.289980 0.838927 
73.667915 192.807190 20.216051 177 187 160 0.881887 0.067837 0.466555 
70.238174 194.628326 26.238474 140 145 104 0.802216 0.026416 0.596449 
-79.463737 156.121674 27.081062 32 31 29 0.269248 -0.962656 0.028277 
-38.279930 205.845474 68.194061 65 58 39 -0.558953 0.633255 0.535312 
-87.630867 88.081177 53.579475 24 28 14 0.138982 -0.623178 -0.769632 
-88.635406 89.100151 52.633232 76 72 60 0.034009 -0.488362 -0.871978 
-12.181831 273.716400 -55.911579 97 89 68 -0.153093 0.698771 -0.698771 
-42.969204 200.809677 68.637009 134 130 85 -0.616312 0.181988 0.766185 
-3.563870 55.378578 -46.579342 43 48 28 -0.506258 -0.095547 0.857073 
23.726192 83.656502 50.493595 115 121 107 0.500133 0.486841 0.716138 
-50.133579 134.179489 43.052467 81 76 46 0.591893 -0.375467 0.713223 
42.251629 -0.866321 -48.527691 88 79 50 0.425046 -0.819844 -0.383655 
71.682892 267.274658 -56.736435 80 82 69 0.220605 0.372545 -0.901412 
-50.605045 132.389786 42.341873 44 41 26 0.566724 -0.509547 0.647445 
-50.150707 79.113434 -57.428131 30 36 24 -0.109149 -0.984742 0.135537 
-55.347111 137.729813 44.789902 121 114 85 -0.043999 0.287877 0.956656 
-11.299861 57.029346 -50.565235 72 75 54 -0.477807 -0.215541 0.851612 
-7.928204 56.664711 -48.926182 55 60 40 -0.484526 -0.144048 0.862835 
-126.024170 229.682770 9.017694 109 101 78 -0.942592 0.329713 -0.053013 
-79.525879 245.721268 -16.661121 92 88 61 -0.925539 0.310403 -0.216857 
-9.463643 211.511993 -84.204536 152 147 128 -0.281277 -0.038754 -0.958844 
28.382986 236.337051 -88.604050 109 106 75 -0.252671 0.200771 -0.946493 
-24.316494 27.744490 -84.676987 120 111 82 -0.712545 -0.189294 0.675609 
-27.613945 34.193550 -87.514809 170 146 110 -0.825060 -0.109135 0.554405 
-113.701645 89.505890 -14.080112 97 90 72 -0.877010 -0.006654 -0.480426 
-109.934013 95.822708 -18.667068 138 129 96 -0.764952 0.165109 -0.622565 
12.031360 101.813034 39.349911 46 49 32 0.709745 -0.704146 0.020998 
14.818967 104.753494 36.895603 34 35 21 0.807852 -0.588914 -0.023557 
28.142902 202.835098 -84.094826 103 101 76 0.159682 -0.819302 -0.550678 
-37.565952 98.564720 76.028511 25 23 11 -0.015971 -0.959478 -0.281332 
37.885319 30.039118 -24.886055 63 71 58 0.453296 0.453296 -0.767493 
-65.173439 63.356762 -57.101662 94 72 49 -0.944491 0.013834 -0.328245 
32.525509 190.633240 62.526009 78 83 76 0.452990 -0.613459 0.646890 
-31.215332 254.437042 -63.674183 93 77 52 -0.356325 0.415975 -0.836658 
-24.045261 68.788017 -71.837120 84 89 67 0.457306 0.779536 -0.428012 
-23.108702 68.215820 -71.779221 56 47 32 0.591244 0.728060 -0.346928 
-36.230156 166.589264 49.179188 47 48 30 -0.295691 -0.746419 0.596176 
-37.549587 168.137375 50.363274 28 34 20 -0.382033 -0.723076 0.575510 
71.092148 289.940674 -35.298321 84 89 69 -0.506296 0.858009 0.086510 
71.399818 290.350311 -37.570690 75 74 54 -0.512925 0.852002 0.104884 
72.663963 290.879120 -35.622330 68 61 42 -0.512830 0.852813 0.098566 
74.472015 22.283005 37.475651 173 165 118 0.583137 0.676706 -0.449467 
-117.442635 153.519547 15.626160 65 64 46 -0.655430 -0.251117 0.712287 
17.023500 77.359856 -30.853039 85 99 82 0.923282 -0.166723 -0.346055 
-81.718384 241.343231 9.213043 66 63 46 -0.869771 0.310305 0.383678 
-104.114601 100.107430 27.171392 32 32 24 -0.066758 -0.987315 0.144057 
57.001503 30.666893 51.253265 87 77 50 -0.825355 -0.480805 -0.296000 
58.512562 29.373228 48.633366 121 117 88 -0.798981 -0.574599 -0.177383 
-72.082565 251.103073 31.645618 108 107 89 -0.640370 0.586586 0.495825 
-49.629532 101.183388 79.969444 81 74 58 0.354942 0.888104 -0.292041 
18.989710 223.133301 -88.021210 93 72 51 0.073012 0.351786 -0.933229 
14.954896 135.333374 28.879761 55 59 44 0.296364 -0.212090 0.931228 
21.741295 134.273926 27.082336 88 90 77 0.157974 -0.391376 0.906570 
30.898897 244.970596 -84.228340 74 73 53 0.172301 0.466834 -0.867398 
7.456758 255.656906 -84.561584 92 90 75 -0.517140 0.847414 0.120231 
79.776184 14.915404 38.885178 195 175 122 0.827836 0.457116 0.325165 
79.756989 15.954488 36.805466 224 196 149 0.806340 0.589627 0.046438 
31.194515 247.461136 -83.014778 108 79 45 0.230513 0.219601 -0.947966 
6.782968 46.572937 -50.780140 12 14 9 0.098398 0.750469 0.653540 
-45.114704 234.630615 -62.411121 73 57 32 -0.579237 0.064043 -0.812640 
54.098598 281.262665 -48.743538 48 35 16 -0.307296 0.948041 -0.082382 
53.239452 280.870667 -51.835213 44 41 26 -0.425216 0.904742 -0.025169 
88.252678 262.345825 -20.253036 81 63 43 0.963878 0.189637 0.187021 
16.347391 41.195801 -45.914375 15 20 13 0.035397 0.720681 0.692363 
13.668549 43.030632 -47.611885 22 27 21 0.067634 0.769872 0.634605 
58.201294 283.641632 -46.398914 75 80 60 -0.490818 0.869012 0.062569 
54.688633 282.325684 -42.527664 112 113 82 -0.078297 0.992892 -0.089644 
17.351269 129.668594 26.614300 154 159 137 0.502417 -0.157650 0.850131 
17.414762 133.193970 27.361816 102 111 92 0.274204 -0.294515 0.915463 
56.409271 18.458138 -7.050550 147 150 123 0.789072 0.593683 -0.157814 
-41.730503 78.934425 -82.546867 124 118 84 0.037819 0.595304 -0.802610 
93.737526 193.566650 -24.829603 126 151 96 0.931200 0.095680 -0.351727 
62.506435 275.407166 31.672201 95 96 78 0.117733 0.935100 0.334254 
-60.661865 277.032654 -12.069386 110 109 78 -0.764878 0.635686 -0.104235 
62.714741 283.446381 9.687934 89 94 72 0.416054 0.898848 0.137738 
-42.878307 237.854523 -62.619423 105 95 70 -0.250111 0.200909 -0.947143 
-44.201687 235.642990 -63.005325 110 96 67 -0.346538 0.115513 -0.930896 
78.364944 5.368125 23.960880 115 98 72 0.489321 -0.866595 0.097864 
-66.992310 101.831711 -35.994213 76 59 41 -0.532669 0.529309 -0.660375 
-68.910118 173.319397 -25.546350 58 46 32 -0.920487 -0.093816 -0.379344 
-25.292547 185.900970 -75.696091 88 72 46 -0.405311 -0.373769 -0.834278 
36.075832 293.272736 -31.571108 86 91 69 0.215098 0.946704 -0.239759 
7.661994 264.233917 65.479019 85 79 43 0.145912 0.457961 0.876916 
-108.842690 243.683044 -4.435883 113 109 80 0.117359 0.983634 -0.136717 
-14.644939 296.286285 -29.200962 62 47 24 -0.101684 0.928717 -0.356573 
-61.824291 92.768738 -50.052837 42 39 24 0.107446 0.861004 -0.497119 
-60.692661 92.319817 -50.507614 48 42 28 0.163215 0.863128 -0.477882 
-26.115015 237.339767 72.156685 116 108 71 -0.200484 0.179518 0.963109 
-81.529671 171.509384 35.043732 35 36 30 -0.601425 0.082209 0.794688 
47.016483 286.298035 -39.472481 71 87 61 0.428804 0.827545 -0.362348 
46.270641 287.931519 -37.722103 103 128 106 0.367554 0.916771 -0.156316 
-61.809456 152.508713 35.149235 92 88 59 0.272693 0.184993 0.944148 
27.479076 68.060654 60.146908 117 107 80 -0.770172 -0.607222 -0.195233 
-28.553715 108.421516 -22.129690 9 8 6 -0.105432 -0.982821 -0.151483 
-28.802414 108.191139 -20.078682 9 8 6 -0.086806 -0.985780 -0.143883 
-66.336769 150.773712 36.193142 83 87 52 -0.215370 0.245549 0.945157 
43.110336 286.953613 31.581270 91 73 49 0.260148 0.842018 0.472577 
83.208130 145.259628 -21.827389 146 140 92 0.968233 -0.209036 -0.137220 
42.942535 285.878693 34.250168 123 108 77 0.259591 0.819190 0.511411 
-24.863956 106.480255 -51.880901 44 36 25 0.366299 0.011487 -0.930426 
-25.459179 104.508980 -52.815155 51 45 29 0.526243 0.108132 -0.843431 
41.966736 105.772148 -9.744965 56 59 42 0.159262 -0.972137 0.172003 
47.475578 106.667221 -10.782581 54 56 42 0.234115 -0.961308 0.145177 
-114.240875 116.578125 -1.049520 94 88 72 -0.783643 0.328521 0.527236 
27.821899 60.319878 72.919083 127 128 97 -0.746103 -0.665817 0.004153 
27.154953 62.286446 76.264061 48 57 38 -0.651444 -0.674301 0.347763 
-25.412077 256.732880 -65.153862 118 108 81 -0.201996 0.348121 -0.915429 
-117.754677 184.626129 2.944379 65 65 55 -0.535626 0.165611 -0.828057 
-118.220787 183.579956 3.001959 69 66 59 -0.517295 0.161562 -0.840419 
-26.507467 80.738411 97.717972 66 59 31 -0.190028 -0.295445 0.936270 
-2.491967 144.386826 43.374825 50 61 44 0.581068 0.386830 0.716047 
-50.113113 114.363564 41.532181 31 28 19 0.689441 -0.297311 0.660513 
58.402508 200.493149 -57.014191 82 77 58 0.689609 -0.032436 -0.723455 
3.196573 214.836105 76.974304 116 90 63 0.203860 -0.307899 0.929322 
3.713146 213.553513 76.714867 128 122 88 0.096698 -0.219768 0.970748 
-20.444843 50.804417 -70.989899 112 111 91 -0.776627 -0.473791 0.415178 
8.727214 71.186531 87.955467 55 61 49 -0.232694 -0.116990 -0.965488 
10.011467 67.627487 87.896431 36 44 29 -0.271488 -0.086207 -0.958573 
-115.439812 239.027084 -18.442938 81 73 52 -0.384372 0.909159 -0.160273 
40.682037 233.655289 66.312157 53 51 36 0.533678 -0.402311 0.743864 
18.917305 64.045471 37.380959 127 122 100 -0.278056 -0.602189 0.748367 
18.772808 66.229591 38.891228 118 116 93 -0.283130 -0.558352 0.779795 
-126.949265 215.015503 5.767683 101 103 89 -0.824815 0.214970 -0.522942 
0.447892 266.487427 64.290550 99 93 57 -0.001370 0.601533 0.798847 
4.298308 267.799469 62.947823 112 95 65 0.029416 0.617740 0.785832 
-23.785769 262.279358 -62.795639 98 84 57 -0.130872 0.464524 -0.875837 
-30.667809 119.085808 -59.550968 48 36 14 0.078351 -0.542762 -0.836224 
67.972946 110.633896 -22.349136 77 92 63 0.522820 -0.844333 -0.117309 
67.548965 110.247940 -19.467865 78 87 68 0.434944 -0.900294 0.017186 
-43.980827 97.830765 -45.406490 41 49 36 0.353544 -0.196095 0.914633 
-11.989552 253.295303 -70.090355 108 85 67 -0.055506 0.318837 -0.946183 
-40.070358 104.134285 19.641163 1 1 1 0.034905 -0.973716 -0.225074 
-28.314327 163.623901 -59.014713 58 62 48 -0.194017 0.448758 -0.872338 
51.078640 25.155939 -16.708103 92 99 81 0.195839 0.545010 -0.815237 
-51.951767 241.206024 62.707020 87 84 53 -0.486399 0.278164 0.828276 
-30.992508 107.182098 62.298340 118 108 73 -0.029190 0.810370 0.585190 
-36.377575 108.767838 59.643677 171 151 114 -0.031418 0.864687 0.501327 
42.587418 113.262581 6.955376 90 91 77 0.302498 -0.750644 0.587391 
40.701218 111.197815 4.927010 81 87 73 0.266051 -0.816823 0.511876 
44.801003 110.906319 2.188249 95 102 86 0.281566 -0.832253 0.477573 
45.730309 111.847893 3.283208 119 122 105 0.297357 -0.810258 0.505035 
-66.351654 269.942261 19.782406 121 106 73 -0.804279 0.564060 0.187006 
-96.000656 175.472244 46.903255 132 113 73 -0.226626 -0.039993 0.973160 
-42.940777 285.435822 -29.784472 83 62 35 -0.370947 0.769432 -0.519974 
63.093212 7.115781 4.977532 83 81 58 -0.559298 -0.626887 0.542401 
64.516998 6.099225 5.096063 90 99 70 -0.503014 -0.634235 0.587130 
-65.686172 181.632156 -36.331749 122 101 72 -0.744288 -0.299316 -0.597031 
5.448977 177.168228 -64.612160 76 83 75 -0.019196 -0.359599 -0.932909 
8.422565 177.733307 -64.425285 94 108 95 0.101742 -0.362201 -0.926530 
72.297134 114.385651 -16.398836 123 112 82 0.786192 -0.612448 0.082528 
70.406906 114.847824 -10.791080 77 84 51 0.661536 -0.581147 0.473961 
83.489609 206.794205 -33.740395 46 40 24 0.349265 -0.783835 -0.513436 
87.177887 242.752289 33.641403 71 73 52 0.731258 -0.292823 0.616049 
-20.255537 97.256538 73.001602 136 126 99 0.279463 0.822776 0.494915 
-15.710426 71.744171 93.697693 118 118 84 -0.369527 -0.925832 -0.079280 
-26.096258 167.402695 59.423122 90 91 60 -0.539139 -0.286171 0.792108 
-11.488169 70.543816 94.240990 136 134 95 -0.269542 -0.910615 0.313252 
-4.735727 196.979248 76.167488 63 60 41 -0.470007 0.020086 0.882434 
-4.492461 196.078552 76.090721 124 129 88 -0.284793 -0.220258 0.932941 
-121.426468 168.598083 -2.194392 91 85 61 -0.869268 -0.207252 -0.448799 
22.580969 77.426682 85.340263 180 158 109 0.575630 0.609391 0.545245 
11.580037 286.320496 -50.950306 80 48 23 0.015332 0.728973 -0.684371 
28.121449 290.555237 -40.875107 115 104 84 0.208225 0.858367 -0.468881 
30.358692 290.431274 -40.621407 106 97 82 0.168777 0.895819 -0.411124 
-118.615479 106.443504 -7.168125 97 93 64 -0.333004 -0.501896 -0.798254 
1.176505 54.629539 -63.596264 134 116 70 0.698278 0.692139 -0.182626 
-37.251053 268.389618 53.123310 123 123 87 -0.437322 0.703373 0.560371 
-38.641773 268.681183 51.556728 60 68 55 -0.258851 0.697150 0.668565 
16.463303 81.433388 86.595406 154 137 93 0.496826 0.716161 0.490180 
-103.818802 148.446548 10.774159 80 81 76 -0.052650 -0.769832 -0.636072 
-103.311829 146.986160 13.704060 50 52 41 -0.050749 -0.983108 -0.175850 
-32.304634 108.919159 59.851681 81 79 56 0.134629 0.968048 0.211560 
-2.015329 285.265259 45.671383 98 80 40 0.108778 0.833965 0.540989 
19.608732 101.619827 -14.445199 3 3 3 -0.470754 -0.870533 0.143399 
20.812494 101.819168 -10.292522 2 2 2 -0.232566 -0.967118 0.102939 
10.713174 100.649971 41.773006 44 46 32 0.791712 -0.610191 0.029323 
2.056829 17.192770 -69.076271 140 124 90 0.486549 -0.150494 -0.860593 
0.544686 20.012976 -70.396797 107 111 94 0.508524 -0.083574 -0.856983 
-73.236099 262.543243 6.662558 158 142 116 -0.834400 0.536296 0.127133 
85.983139 265.729218 16.635248 45 39 23 0.960763 -0.038530 0.274681 
-101.090584 229.998779 37.752037 52 54 43 0.111917 -0.243130 0.963516 
60.671844 26.188313 41.730286 78 74 47 -0.591751 -0.734420 0.332353 
-77.886528 192.592636 35.450634 42 40 28 0.182146 0.071170 0.980693 
74.022659 249.931000 45.272263 55 77 56 0.341549 0.435986 0.832623 
8.935397 83.306610 89.670769 205 188 144 0.352667 0.510482 0.784241 
15.035931 81.308395 87.922935 132 132 98 0.456267 0.596657 0.660167 
-5.347667 138.796661 -52.748863 93 100 84 0.004994 -0.018977 -0.999807 
14.080856 298.069153 13.036423 82 89 58 -0.117840 0.982808 -0.142137 
12.913793 298.030609 14.342904 114 109 90 -0.049878 0.987128 -0.151955 
-9.132349 16.873030 -74.872055 162 148 113 0.771540 -0.263491 -0.579049 
-103.867310 229.116699 38.472572 40 42 31 0.149048 -0.241378 0.958917 
-71.053749 265.857758 1.487157 113 113 89 -0.830820 0.555272 0.037575 
29.674343 177.806870 -66.323898 121 137 110 -0.007913 -0.161644 -0.986817 
27.148243 180.494232 -66.619209 184 190 154 -0.014876 -0.170501 -0.985245 
26.402071 180.930756 -66.677101 135 141 107 -0.014931 -0.175731 -0.984325 
28.520733 183.825043 -67.174202 146 146 108 0.012322 -0.146741 -0.989098 
-26.841768 155.867554 -56.711872 72 66 50 0.087979 0.056797 -0.994502 
-38.281277 289.294891 22.115767 92 88 59 -0.554022 0.807376 0.202989 
45.414906 33.644569 -12.359435 86 103 87 0.096288 0.541799 -0.834974 
-16.151665 188.046463 -78.468925 67 59 40 -0.271284 -0.297397 -0.915402 
47.365612 141.891632 -56.256348 109 142 115 0.257308 -0.348468 -0.901312 
42.487335 137.254898 -55.728214 105 125 98 0.197648 -0.370770 -0.907450 
43.047428 134.579865 -54.396015 55 78 52 0.217722 -0.413227 -0.884217 
-26.955097 103.561768 49.076233 30 27 18 0.339398 0.801489 -0.492366 
28.236412 288.302399 36.885250 73 64 35 0.116694 0.781407 0.613013 
-19.179554 101.905930 27.244558 8 7 2 -0.060834 -0.990563 0.122816 
52.239304 8.262006 -31.684269 125 125 99 0.460591 0.537079 -0.706683 
53.291233 6.408418 -32.652958 120 133 116 0.560899 0.651856 -0.510368 
6.056907 207.264404 -87.955276 57 49 30 -0.253430 -0.753992 -0.606027 
8.543625 297.737213 -9.069625 85 65 58 -0.106028 0.981063 0.162089 
8.265570 298.296631 -11.356832 89 55 30 -0.086945 0.978436 0.187360 
75.531006 137.821564 -10.982374 108 99 68 0.749658 -0.236322 0.618194 
-25.466803 298.097839 -6.566969 88 64 38 -0.129817 0.988249 0.080697 
-17.559889 44.069393 -72.804474 102 96 72 -0.744492 -0.348727 0.569317 
-75.129326 244.116623 35.745579 128 137 108 -0.800420 0.407457 0.439667 
-9.336997 192.396820 72.029831 125 106 73 -0.283696 -0.668370 0.687603 
-29.994804 91.941841 96.051971 168 156 116 0.097713 0.280111 0.954982 
-26.736902 91.298561 95.882874 196 196 170 0.145468 0.270917 0.951548 
-25.819839 88.905403 96.232964 181 185 150 0.153417 0.229469 0.961149 
-21.011120 56.133633 -66.392212 93 100 84 -0.651685 -0.594725 0.470754 
28.445890 16.374393 -48.214092 53 49 37 -0.588241 -0.214608 0.779690 
-42.994141 105.994064 73.522926 210 195 154 -0.290459 0.782493 0.550761 
53.644642 37.229637 65.853386 152 156 119 0.799835 0.600218 0.001367 
53.021042 38.517460 67.833878 170 161 130 0.734952 0.637794 -0.230358 
-14.836712 24.559357 -84.820541 157 145 93 0.258631 -0.006015 -0.965957 
-18.533533 28.751987 -85.418037 99 93 61 0.319080 0.082725 -0.944110 
-44.181374 105.532295 65.578331 44 35 26 0.417632 0.855298 -0.306674 
-41.751465 104.725441 63.885910 109 98 80 -0.054467 0.844930 0.532096 
-48.646168 186.477692 -61.207455 87 85 64 -0.481911 -0.572584 -0.663257 
5.141382 79.563744 -47.605770 120 129 112 0.520283 -0.054400 -0.852260 
3.636867 72.542137 -48.164787 129 151 139 0.486344 -0.053732 -0.872113 
-36.394955 104.091286 27.149912 9 5 2 0.033765 -0.983845 0.175811 
-23.081951 33.756676 -90.724495 75 70 41 0.484905 0.134615 -0.864145 
-43.877861 228.778168 -62.805973 77 56 35 -0.477394 0.014710 -0.878566 
26.575958 267.426147 -80.708504 50 51 35 -0.567048 0.792631 0.224038 
38.568214 274.678802 -77.434265 67 68 50 -0.544067 0.810737 0.216094 
-38.983223 79.672722 -60.205231 70 68 55 0.950251 0.018730 -0.310923 
-38.514126 77.822845 -59.674850 29 26 17 0.898133 0.227097 -0.376542 
-80.247360 121.464317 40.940334 62 61 43 0.337498 0.286947 0.896525 
-77.088234 124.804390 38.008694 71 73 49 0.135513 0.432214 0.891531 
82.938431 263.630249 27.839403 77 66 46 0.909411 -0.172745 0.378326 
48.734539 259.662781 -75.907600 137 121 98 0.439634 0.161054 -0.883620 
-78.002823 103.180679 -30.549324 72 57 34 -0.144048 0.862835 -0.484526 
-6.245783 138.840363 -52.775291 90 104 79 0.033686 -0.013270 -0.999344 
49.019562 263.528442 -76.395813 92 85 57 0.582682 -0.375871 -0.720557 
30.976587 138.697449 -57.202194 161 173 137 -0.023797 -0.309367 -0.950645 
31.923723 145.775467 -59.262924 137 161 137 -0.020699 -0.259350 -0.965562 
34.000900 145.888748 -59.328835 68 92 68 -0.003616 -0.268823 -0.963183 
26.825733 68.766235 4.501353 117 132 103 0.997687 0.045883 0.050151 
6.983215 93.704674 -42.720390 43 40 25 -0.575823 0.090920 0.812503 
-80.314842 122.668709 -10.099475 51 42 27 0.165420 -0.620705 -0.766396 
-47.849182 284.625977 -25.049002 68 52 27 -0.580681 0.772667 -0.256507 
44.098495 209.450851 72.708366 118 121 92 0.379486 -0.240686 0.893342 
-73.853508 238.775482 -31.293564 84 54 26 -0.677537 0.300949 -0.671099 
-73.312263 239.242279 -31.921724 101 81 54 -0.480147 0.370950 -0.794893 
-32.305313 294.425659 8.669005 84 71 52 -0.272170 0.961832 0.028325 
-74.472244 235.713867 -32.062019 141 130 112 -0.751474 0.261038 -0.605925 
-95.644592 195.392197 46.001362 134 122 100 0.092032 0.047679 0.994614 
-36.292278 293.617218 9.089792 104 94 69 -0.279992 0.956102 -0.086449 
-34.126694 97.021782 94.734909 143 131 89 0.055206 0.413375 0.908886 
-32.840172 95.065010 95.428856 146 129 85 0.036894 0.316776 0.947783 
-19.375391 262.469086 -62.014061 66 54 40 -0.082412 0.465140 -0.881392 
-19.038689 263.407837 -61.674931 57 45 31 -0.167761 0.450767 -0.876735 
-103.405014 239.113922 22.670277 100 104 81 -0.101550 0.985628 -0.135001 
-77.710938 224.986023 40.591240 69 76 60 -0.295835 0.144540 0.944240 
85.799515 158.013138 -20.174919 34 28 14 0.493067 -0.456788 0.740425 
84.941376 158.526749 -19.240635 52 54 40 0.623014 -0.468520 0.626373 
-95.751495 239.250366 24.470724 134 138 121 0.107153 0.987930 0.111863 
52.497833 217.370300 -70.915367 80 79 51 0.762464 -0.573846 -0.298912 
7.102758 248.716248 70.334648 100 87 68 0.217439 0.172634 0.960686 
36.235878 42.213142 18.329172 52 60 47 -0.578200 -0.748922 0.323728 
1.980028 248.189545 70.485298 111 95 80 0.146211 0.086776 0.985440 
-30.720125 156.040115 -59.975498 94 87 58 0.191380 -0.097542 -0.976657 
-9.919440 271.488556 -60.403606 99 82 56 -0.260866 0.618174 -0.741492 
-28.223080 213.922745 70.082344 98 80 58 -0.411124 0.168777 0.895819 
-26.944098 214.252914 70.676331 111 96 77 -0.423259 0.265485 0.866239 
-18.513544 239.623062 73.597786 135 120 79 -0.001014 0.039563 0.999217 
-17.347078 243.547943 73.242210 155 149 101 -0.112239 0.141204 0.983598 
-95.041534 197.577866 43.647240 59 52 33 0.459738 0.795266 0.395213 
-12.784086 98.465668 59.193859 44 41 32 0.374429 0.570637 -0.730873 
60.317966 289.137512 -10.094868 50 49 31 0.548751 0.829641 -0.102800 
-62.941051 66.303947 -50.299469 28 24 15 0.908061 0.080565 0.411017 
-60.124580 63.628490 -56.991596 19 16 9 0.942321 0.047696 0.331295 
19.356653 76.863503 16.097288 57 58 40 -0.811300 -0.063938 -0.581124 
-1.404424 90.550842 70.992256 135 124 94 0.365854 0.641474 0.674286 
6.495674 84.852509 71.712051 139 161 140 0.375467 0.713223 0.591893 
3.147706 86.659706 72.063751 144 161 143 0.401577 0.689126 0.603192 
16.423065 72.617195 -31.348591 158 152 118 0.980430 -0.046348 -0.191332 
16.997478 72.971657 -28.682678 152 160 136 0.973917 -0.124410 -0.189757 
-8.633575 148.292999 48.635090 90 86 61 0.186078 -0.118640 0.975346 
-6.013099 149.865051 47.544495 97 97 73 0.491902 -0.056811 0.868795 
1.560292 37.973728 -66.159607 181 155 98 0.637452 0.240815 -0.731890 
-66.403343 92.507011 70.776199 70 71 57 0.215631 -0.963153 -0.160743 
36.902512 284.910706 38.496567 119 115 77 0.284575 0.767876 0.573920 
-79.914780 241.788300 11.613731 112 106 84 -0.923100 0.270490 0.273352 
7.916722 242.642502 70.217110 92 85 67 0.125198 0.037221 0.991433 
-7.262945 154.309189 47.591221 44 41 26 0.341118 -0.308058 0.888110 
-7.113887 153.023773 47.660267 48 54 40 0.342124 -0.160589 0.925830 
-7.269700 27.330536 -69.272316 103 102 81 -0.598786 -0.125671 0.790988 
26.612556 241.280167 78.497269 89 81 44 -0.248352 0.688109 0.681782 
-9.880031 52.238785 -69.977943 129 126 93 0.670670 0.516029 -0.532838 
-117.359146 155.200455 23.493923 54 51 32 -0.672515 -0.738196 -0.052830 
43.410851 210.206787 -78.773888 83 77 55 0.826630 -0.335376 -0.451891 
30.737671 113.824837 12.554972 68 75 67 0.282884 -0.621705 0.730383 
29.304363 117.553902 15.860463 61 74 64 0.221822 -0.584804 0.780256 
31.119860 117.654335 15.507494 71 84 74 0.201187 -0.594345 0.778638 
-38.758614 181.711105 -62.274723 49 45 36 -0.321648 -0.860294 -0.395520 
-20.432007 104.658173 17.867203 5 3 4 -0.003723 -0.946925 -0.321433 
-18.483353 104.871727 17.610783 6 4 5 -0.006263 -0.943272 -0.331962 
-110.928322 224.648865 -24.001570 146 130 104 -0.614064 0.185291 -0.767198 
-15.029688 201.015717 72.534149 75 68 42 -0.068637 -0.306922 0.949256 
-56.288284 123.607887 47.618595 36 34 21 0.816731 0.192439 0.543982 
9.633013 121.535713 43.357521 87 89 68 0.435551 -0.196367 0.878485 
-23.547070 198.929642 70.600334 95 75 48 -0.072924 -0.584819 0.807879 
-28.345915 195.358307 67.373558 98 92 58 -0.107580 -0.635164 0.764849 
-66.613441 267.751801 24.417042 97 93 56 -0.655908 0.629340 0.416792 
28.562397 40.295517 -14.972174 85 87 76 0.759330 0.545617 -0.354570 
-44.898357 84.785004 -74.951553 65 59 37 -0.249434 0.925043 -0.286493 
-47.481640 105.441338 -31.119822 7 5 6 0.335375 -0.899751 0.279233 
-45.073387 106.774208 -32.292599 3 3 3 0.467183 -0.790494 0.396055 
-117.265701 174.848602 26.952806 88 91 72 -0.972723 0.013065 -0.231601 
26.465376 44.897621 -13.077518 80 73 57 0.739124 0.484482 -0.467946 
-91.098335 76.011604 -22.196257 82 87 67 0.132032 -0.101105 0.986076 
-90.745468 74.877975 -22.480301 102 102 74 0.215812 -0.107275 0.970524 
-64.788864 172.579453 -34.259205 36 30 16 -0.808581 -0.587167 -0.037837 
56.606609 36.256645 70.194305 141 145 110 0.702442 0.569592 -0.426779 
3.168637 51.718098 -47.888458 63 70 52 0.576625 0.177074 -0.797589 
62.743809 17.578699 59.063221 140 139 109 0.249649 -0.340166 0.906622 
12.512926 178.866379 64.069893 62 66 39 0.229139 -0.231883 0.945370 
-27.648029 99.414993 87.046753 121 114 88 0.239228 0.960835 0.139877 
-72.017456 118.124741 53.869400 59 54 35 -0.340921 0.795483 0.500978 
93.970512 251.632797 22.542477 102 111 80 0.659992 0.750441 0.035331 
-59.449524 271.948639 -28.689987 204 205 171 -0.583242 0.714677 -0.386090 
-59.228619 272.723053 -27.508949 123 127 94 -0.590580 0.721457 -0.361546 
-84.417839 66.500099 -31.729586 158 171 164 -0.317923 0.063585 -0.945982 
-40.134220 107.344345 -31.037642 3 3 3 0.103491 -0.986143 0.129662 
79.992592 196.580643 -7.759492 65 63 50 0.996484 -0.016021 -0.082239 
-58.691181 194.552933 -51.936729 75 64 36 -0.653427 -0.398673 -0.643501 
-110.677498 100.196205 -11.922372 16 15 10 -0.230863 0.791752 0.565537 
49.889034 261.593658 -75.078163 142 129 112 0.605122 -0.091421 -0.790866 
73.895905 277.781921 -55.270683 146 153 112 0.796802 -0.230531 -0.558535 
66.624657 16.952522 56.811268 162 145 101 0.681736 0.110911 0.723143 
94.822449 237.152924 17.867691 48 41 25 0.773818 -0.601516 0.198454 
-38.801922 105.133080 43.880703 2 2 0 0.371102 0.872014 -0.319178 
-38.335407 105.129799 42.950359 52 42 30 0.207733 0.862318 0.461796 
-39.957455 100.050751 82.455460 138 124 97 -0.093150 0.963397 0.251376 
-39.489437 100.463219 81.225388 177 157 130 -0.237899 0.833415 0.498821 
60.421444 263.642639 -65.475861 99 102 81 0.645748 0.064719 -0.760803 
26.199623 66.612587 11.955911 167 187 160 0.955526 0.044179 0.291580 
27.230474 62.329643 9.221480 116 134 110 0.969451 0.081309 0.231417 
-50.456604 91.267090 -44.626190 58 50 31 0.427503 0.081102 0.900369 
31.618668 293.974548 -30.251520 109 95 66 0.204742 0.914895 -0.347918 
37.897873 286.195312 -45.298157 77 80 51 0.198894 0.824422 -0.529877 
-17.639872 153.086853 -51.658741 105 116 108 0.351738 0.274563 -0.894928 
-75.482201 238.521774 38.835159 120 125 85 -0.829301 0.257902 0.495728 
12.808836 237.836273 71.960419 76 74 53 -0.312125 0.700260 0.642039 
-89.357933 139.615250 13.078552 44 34 24 -0.892121 0.446748 -0.067356 
81.995720 199.907440 -3.391123 62 59 50 0.863156 -0.263361 -0.430817 
-45.267384 284.000580 26.212046 90 84 62 -0.226932 0.867150 0.443343 
21.249151 32.628170 -43.682831 56 53 34 -0.463734 -0.870416 0.165306 
18.191130 9.732317 -53.360912 30 32 18 -0.504056 0.089452 0.859026 
-10.935332 159.925018 51.618736 39 31 18 0.051125 -0.863600 0.501579 
-8.539376 159.331421 50.114819 58 55 40 0.067488 -0.618883 0.782578 
19.804340 261.170471 -76.588364 39 30 15 -0.530202 0.810074 0.250330 
-113.160728 244.189133 -8.352792 102 109 75 -0.115645 0.985965 -0.120414 
62.600094 280.755920 20.891954 65 78 48 0.415340 0.829100 0.374280 
