ply
format ascii 1.0
comment Created by CloudCompare v2.13.alpha
comment Created 2023-10-15T13:23:15
obj_info Generated by CloudCompare!
element vertex 675
property float x
property float y
property float z
property uchar red
property uchar green
property uchar blue
property float nx
property float ny
property float nz
end_header
-78.346581 231.437134 36.753967 70 73 56 -0.408580 0.573998 0.709640 
-80.264938 229.048904 39.645752 37 30 14 0.425790 0.419363 0.801771 
-83.638512 234.265305 30.015902 32 32 24 0.317662 0.947964 0.021345 
-79.769600 233.538910 33.018185 56 57 43 -0.321313 0.933600 0.158588 
-80.711708 233.137955 36.051437 17 16 11 0.520026 0.801378 0.295577 
-80.367317 233.632233 30.734348 92 89 72 0.009115 0.999584 -0.027344 
-80.136826 233.553940 29.465485 97 94 79 -0.065880 0.996845 -0.044280 
-78.009972 236.587296 27.073685 41 34 24 -0.898826 0.419076 0.128404 
-78.593880 235.103470 26.632990 71 64 48 -0.561198 0.760593 0.326428 
-80.661407 236.140518 24.158636 41 44 37 0.069697 0.937623 0.340595 
-79.250061 234.349075 26.304363 80 80 68 -0.256659 0.861099 0.438902 
-90.236847 241.093567 15.578404 42 39 32 0.212772 0.969576 -0.121038 
-91.906380 240.822906 13.441092 124 122 110 0.266129 0.926472 -0.266129 
-100.179222 240.740906 -13.276549 86 68 48 0.217277 0.974713 0.052195 
-83.982590 237.035629 -3.255440 121 112 97 -0.609094 0.779700 -0.145165 
-78.525299 247.529312 10.905531 68 63 44 -0.899006 0.255383 0.355764 
-78.142845 246.297958 15.311263 121 114 96 -0.952067 0.259166 0.162483 
-80.486015 237.420959 18.886894 102 100 85 -0.590407 0.712107 0.379900 
-81.657463 236.774536 21.267885 67 69 55 -0.033892 0.982872 0.181148 
-82.655388 237.484741 18.353920 56 53 38 0.186010 0.858621 0.477673 
-85.726944 240.002029 15.246103 29 29 17 0.222061 0.954189 -0.200528 
-85.879639 239.793564 14.150262 46 47 29 0.173330 0.903894 -0.391067 
-86.857689 238.787201 12.729775 83 83 71 0.249060 0.910306 -0.330623 
-85.644455 237.832443 9.212162 32 28 16 0.173380 0.980870 -0.088509 
-89.219910 237.924210 6.451225 87 62 42 0.227824 0.909844 -0.346815 
-92.021858 240.157532 9.993530 42 37 31 0.295333 0.933589 -0.202954 
-89.126945 236.828064 0.972994 33 20 14 0.201478 0.979437 0.010481 
-88.556908 236.509216 2.264518 49 37 23 0.191698 0.981448 0.003444 
-86.233147 236.473251 -1.581998 43 39 30 -0.050918 0.998611 0.013509 
-87.243851 236.859344 4.194219 86 85 67 -0.055548 0.969007 -0.240709 
-86.488983 236.618484 2.900694 67 63 51 -0.274189 0.950967 -0.143113 
-87.316635 237.282867 5.387989 73 62 44 -0.078364 0.933722 -0.349316 
-84.671730 238.160553 3.651749 99 93 71 -0.726129 0.686496 -0.038217 
-84.545425 237.743301 8.658764 50 47 32 -0.057254 0.998294 0.011451 
-84.355904 239.491852 15.792328 48 43 24 0.181321 0.979621 0.086401 
-83.218842 238.863800 17.253525 46 48 35 0.205595 0.856895 0.472718 
-77.821053 255.031662 9.103321 85 83 45 -0.901778 0.335030 0.273042 
-82.374748 240.439072 -5.272062 129 116 99 -0.965562 0.259350 0.020699 
-84.551224 236.834595 -6.554130 99 89 79 -0.391253 0.919112 0.046420 
-98.330101 238.885345 -21.067881 143 128 85 0.219921 0.712794 -0.666002 
-83.222946 235.578552 -17.016285 61 47 36 0.024044 0.945328 -0.325233 
-81.635475 236.385559 -16.964514 145 127 107 -0.678574 0.625741 -0.384690 
-85.109116 235.957489 -12.817612 66 52 39 -0.296167 0.951128 -0.087415 
-83.404648 235.791931 -15.956778 138 123 104 -0.090887 0.961359 -0.259861 
-78.293549 235.070404 30.688282 56 50 38 -0.924288 0.380895 -0.024700 
-83.343544 217.410690 39.753025 98 95 80 0.253925 -0.186031 0.949165 
1.136828 89.908531 53.078072 34 34 26 -0.372949 0.820487 0.433255 
2.317911 91.605034 53.138855 44 41 32 -0.474729 0.622347 0.622347 
52.722462 283.386749 -77.932632 107 105 66 -0.203082 0.873104 -0.443223 
57.581470 285.837921 -75.034897 106 97 54 -0.042815 0.857680 -0.512398 
61.986156 287.393494 -71.846375 100 91 52 0.201981 0.757043 -0.621361 
64.314110 289.720642 -64.739532 80 87 56 -0.396395 0.918036 0.009038 
37.593277 274.195984 -87.145157 80 74 48 -0.085819 0.650185 -0.754913 
30.274273 269.671265 -88.844254 134 140 94 -0.345778 0.735387 -0.582790 
28.663986 268.988770 -88.675560 82 83 51 -0.430211 0.780874 -0.452939 
29.834988 270.376953 -86.323380 92 88 63 -0.515119 0.841707 -0.161810 
28.962524 269.758087 -86.597977 86 81 52 -0.514742 0.840000 -0.171581 
33.720676 272.928223 -85.267281 88 96 59 -0.501617 0.851718 -0.151515 
32.412994 271.830750 -81.764908 105 108 87 -0.549725 0.822365 0.146692 
31.339231 271.308716 -83.289268 82 84 63 -0.545813 0.835023 0.069467 
18.509476 262.803070 -88.394539 72 67 38 -0.526609 0.835158 -0.158725 
25.403290 267.371674 -87.670830 99 98 68 -0.508325 0.823517 -0.251845 
28.096035 267.660553 -89.805962 87 87 53 -0.285917 0.624544 -0.726771 
-56.557842 168.070801 39.852379 46 44 31 -0.489083 -0.760614 0.426925 
-31.999052 154.208664 32.429276 118 112 76 -0.440566 -0.516469 0.734276 
-35.568790 157.305283 34.197140 23 23 15 -0.381343 -0.873595 0.302340 
-38.382065 158.401932 34.815163 30 26 14 -0.235216 -0.939471 0.249134 
24.744659 256.078278 -88.999336 131 127 98 0.359471 -0.356385 -0.862421 
23.291233 253.651688 -88.536896 102 101 73 0.345484 -0.357768 -0.867550 
23.370743 251.422272 -87.562027 84 79 57 0.353836 -0.366197 -0.860639 
24.334692 257.499298 -89.760384 92 90 65 0.348014 -0.351080 -0.869269 
21.446276 169.805389 51.909050 155 142 110 0.298053 -0.200101 0.933340 
74.534950 226.236267 -55.361034 106 115 94 0.760990 -0.104507 -0.640291 
93.124420 223.129105 1.865780 113 107 85 0.977901 0.092023 0.187728 
92.937637 228.451797 0.384796 149 152 105 0.986763 0.081346 0.140292 
93.045578 224.858749 1.479791 82 64 40 0.980569 0.086271 0.176187 
93.300453 220.768036 2.033416 166 154 132 0.975485 0.097920 0.197080 
83.615463 220.806915 22.143396 114 108 74 0.806202 -0.287593 0.517038 
84.523392 222.530563 21.501640 119 111 75 0.836807 -0.412908 0.359529 
-54.632233 64.665260 -77.626175 16 13 6 0.165787 0.929244 -0.330181 
-26.973003 106.596992 -53.942654 43 39 27 0.661634 0.111012 -0.741563 
-25.800262 107.010254 -52.503201 52 45 26 0.500145 0.031344 -0.865374 
-14.948502 278.158325 -53.951694 81 72 39 -0.017918 0.571982 -0.820071 
31.182693 296.255646 -22.084162 78 80 59 0.193750 0.966149 -0.170344 
-78.375122 102.884605 11.410185 11 10 6 0.168410 -0.973737 -0.153215 
-77.001526 103.180229 10.586653 10 9 5 0.155365 -0.978176 -0.137964 
-77.551994 103.019684 11.586344 10 9 4 0.164508 -0.975747 -0.144416 
-75.446198 103.559822 8.940308 8 7 3 0.134302 -0.983674 -0.119783 
-77.977341 102.834831 13.326523 10 9 4 0.178802 -0.972634 -0.148368 
-79.184120 102.845695 9.743295 12 11 6 0.161153 -0.973260 -0.163690 
-21.705765 99.646599 -45.837612 12 11 6 -0.084584 -0.985226 -0.148916 
-20.860552 99.928833 -46.894909 17 17 9 -0.080402 -0.993137 -0.084932 
-57.026291 68.259323 -67.547501 32 32 22 0.896019 -0.178046 0.406755 
-55.644508 69.778572 -69.613403 31 28 19 0.875945 -0.253919 0.410177 
-67.681213 267.265991 -16.191608 145 132 100 -0.768735 0.609157 -0.194869 
5.187026 75.303833 -42.602020 49 50 34 -0.617292 0.018033 0.786527 
4.130105 77.461784 -43.428158 52 54 40 -0.592585 0.017957 0.805308 
-23.482174 106.548111 -19.074692 37 27 15 -0.285394 -0.956007 -0.067829 
16.689625 79.463646 -21.313126 28 28 20 -0.900069 0.349127 0.260740 
17.384853 80.074432 -19.711683 21 20 15 -0.890077 0.357527 0.282730 
18.479633 83.035225 -20.629007 2 2 0 -0.894676 0.363508 0.259649 
60.561420 9.816092 5.212519 103 95 74 -0.647856 -0.627870 0.431349 
60.273708 11.570173 7.194567 61 63 39 -0.579915 -0.643790 0.499232 
60.273552 12.643295 8.589175 86 87 69 -0.519544 -0.654053 0.549808 
44.806744 163.385422 34.847099 122 135 117 0.287729 -0.323141 0.901550 
42.941563 165.920105 36.315369 123 135 123 0.291483 -0.321075 0.901082 
41.336246 163.202698 35.769840 80 86 74 0.257571 -0.345880 0.902233 
45.206032 163.011169 34.594959 100 118 104 0.288002 -0.320495 0.902407 
18.382881 134.744812 27.667480 83 87 72 0.164622 -0.358791 0.918787 
22.294626 134.797638 27.259581 80 77 60 0.155023 -0.393958 0.905961 
19.353634 134.576279 27.483604 70 74 60 0.162642 -0.369126 0.915037 
20.509014 136.075058 28.037973 77 90 73 0.150728 -0.376116 0.914231 
-127.903152 223.908035 5.515348 91 85 61 -0.745441 -0.136489 0.652448 
-90.960800 238.407578 21.470406 45 54 35 0.183342 0.961555 0.204446 
66.487083 264.081451 59.929165 109 102 48 0.582589 0.131935 0.801987 
91.655685 294.537933 0.448775 100 60 34 0.155861 0.944653 0.288682 
90.138382 293.842346 2.034792 82 75 47 -0.111700 0.952732 0.282534 
-48.199249 105.251312 12.278828 11 8 3 0.009589 -0.996223 -0.086304 
-39.009933 105.920830 5.939270 8 7 5 0.013641 -0.997856 -0.064006 
-43.754562 105.801544 6.056736 8 7 3 0.013669 -0.997847 -0.064140 
-43.088985 105.581802 9.336462 9 8 4 0.011631 -0.997110 -0.075074 
-47.937794 105.589218 7.653858 8 7 2 0.013723 -0.997549 -0.068614 
-48.168781 105.560989 7.972081 9 8 3 0.013750 -0.997391 -0.070864 
-41.328865 105.739830 7.706984 9 8 4 0.011586 -0.997440 -0.070569 
-47.558708 105.621277 7.330334 11 8 3 0.013723 -0.997549 -0.068614 
-46.052444 105.026031 16.118111 12 11 6 0.003220 -0.995000 -0.099822 
-49.235474 105.556190 7.691593 9 8 3 0.013723 -0.997549 -0.068614 
-45.301910 105.125366 14.977928 11 10 6 0.005346 -0.995448 -0.095161 
-42.189114 105.546539 10.120986 9 8 4 0.009535 -0.996959 -0.077341 
-23.390251 95.546272 49.411880 116 106 81 -0.414478 -0.824193 0.385894 
-66.981918 238.178711 50.799435 96 89 63 -0.657856 0.294347 0.693242 
47.831615 262.482422 -76.742691 93 93 67 0.555623 -0.369872 -0.744633 
43.565636 264.308441 -81.377731 121 112 95 0.551619 -0.425724 -0.717270 
48.151745 266.964264 -79.279808 150 145 116 0.576148 -0.385740 -0.720596 
48.277035 267.453064 -79.482475 153 149 124 0.579700 -0.385919 -0.717645 
31.143250 259.088501 -87.145592 107 100 82 0.474011 -0.399593 -0.784626 
30.143446 255.661270 -85.948143 140 140 116 0.496828 -0.405607 -0.767232 
4.585157 90.394012 -48.757244 132 133 101 0.468366 -0.085284 -0.879409 
4.926848 88.824982 -48.458179 104 100 71 0.481710 -0.085668 -0.872133 
4.439937 84.592606 -48.393230 97 102 79 0.481921 -0.068052 -0.873568 
22.122978 44.109646 -23.409939 77 65 49 0.878770 0.461533 -0.121456 
20.056599 48.029007 -23.005964 92 83 68 0.913511 0.391110 -0.111943 
-95.725952 150.518402 21.273840 12 13 7 0.053860 -0.980247 0.190304 
-32.706795 271.667450 -53.801094 62 33 19 -0.350085 0.597588 -0.721339 
-38.408401 291.220123 -21.146429 80 65 36 -0.466172 0.876746 -0.118325 
61.257652 228.085495 -78.322868 64 57 28 0.532555 -0.600180 -0.596799 
23.965942 237.806061 -84.700478 69 69 61 -0.064718 0.740662 -0.668753 
74.921928 136.082993 -20.029907 57 61 46 0.310527 -0.917137 -0.249866 
77.112541 151.538132 -4.742304 186 208 195 0.962979 -0.251935 0.095914 
77.905357 154.769775 -6.036335 71 87 76 0.968566 -0.241831 0.058288 
77.107285 151.444717 -5.231664 109 129 102 0.963780 -0.248923 0.095740 
12.777893 79.701897 73.376015 140 126 100 0.384022 0.743533 0.547436 
-1.947714 91.783829 70.136475 156 144 104 0.362155 0.637459 0.680066 
-9.700396 97.499542 68.802361 138 127 95 0.318384 0.628687 0.709495 
-4.736947 93.610367 69.856659 115 110 88 0.343820 0.630609 0.695788 
10.510977 27.393770 -62.200340 136 144 123 0.535555 0.198747 -0.820780 
10.112775 25.880167 -63.140602 140 150 116 0.551901 0.203332 -0.808741 
0.537021 35.715805 -67.808426 193 167 116 0.659034 0.203137 -0.724162 
0.010424 36.584759 -68.189064 137 142 112 0.659668 0.209542 -0.721755 
31.275658 214.616257 68.037903 40 49 30 -0.330719 0.411457 0.849310 
31.623688 214.759262 68.078232 34 41 23 -0.339353 0.417545 0.842909 
-26.201880 101.533981 38.397026 16 16 8 -0.014024 -0.355695 -0.934497 
21.838058 62.858521 10.554421 86 79 63 -0.938422 -0.003769 -0.345470 
20.554249 65.533241 13.687239 73 71 58 -0.922424 -0.003849 -0.386161 
22.199869 61.724556 9.727183 71 65 49 -0.940919 -0.001250 -0.338631 
90.448326 249.343048 -24.279684 98 85 51 0.990368 -0.136021 0.025855 
-52.240181 252.084076 57.957954 136 136 100 -0.507110 0.473857 0.719930 
-13.103134 229.274521 72.171196 101 93 72 0.090203 -0.085636 0.992235 
-44.298847 117.247574 -46.391685 89 69 45 -0.512598 0.227991 -0.827807 
-48.546391 116.471664 -44.182163 114 83 65 -0.515875 0.214568 -0.829357 
-56.992939 110.750679 -40.114258 131 122 93 -0.587895 0.270970 -0.762204 
-58.765854 108.273079 -39.567635 120 115 86 -0.601942 0.285803 -0.745642 
-55.984184 113.806107 -39.844616 97 98 66 -0.592522 0.267030 -0.760008 
-57.133904 108.778290 -40.697197 92 86 52 -0.579482 0.270004 -0.768959 
-55.553535 114.709221 -39.871090 92 89 58 -0.589539 0.263949 -0.763397 
-13.471129 28.379705 -73.739670 67 72 50 -0.637809 -0.098237 0.763904 
-6.353677 28.135792 -68.502731 119 114 92 -0.602730 -0.142083 0.785194 
-5.378698 30.446894 -67.496284 82 87 65 -0.606272 -0.161773 0.778629 
-11.388245 28.283955 -72.149826 53 55 31 -0.600265 -0.103695 0.793051 
-5.331152 29.223518 -67.618607 82 84 62 -0.603716 -0.158080 0.781369 
-47.419998 94.714706 -44.736702 56 55 35 0.280439 -0.146258 0.948663 
-48.127007 94.485405 -44.670994 83 77 55 0.287562 -0.147156 0.946390 
-81.985275 100.978691 -22.642941 82 90 77 0.236833 -0.809567 0.537132 
-79.087677 100.029106 -25.323444 67 81 64 0.250757 -0.805227 0.537337 
-77.346039 99.828697 -26.292332 37 55 43 0.232282 -0.822984 0.518403 
-2.288579 46.241447 -52.940632 57 56 38 -0.638260 -0.767346 -0.061675 
-23.395405 60.252380 -62.321327 65 81 71 -0.513937 -0.832305 0.207697 
50.241714 47.177078 74.972580 124 136 98 0.721359 0.611129 -0.325827 
16.255594 80.868507 80.860512 81 75 59 0.325291 0.716935 -0.616596 
79.603302 153.449295 -12.046915 158 170 148 0.876634 0.020199 0.480734 
75.438126 157.242981 -33.344677 128 120 99 0.496318 -0.077330 -0.864690 
77.372444 155.455338 -32.317581 101 94 75 0.569076 0.122050 -0.813176 
94.557465 176.914230 -20.152601 137 149 109 0.687126 -0.018193 0.726310 
94.119637 179.017517 -19.691643 97 123 94 0.660307 -0.029566 0.750413 
86.943695 206.554535 -4.351435 79 80 72 0.519580 -0.850866 0.077866 
85.313583 205.663818 -6.266699 51 52 38 0.494644 -0.861683 0.113266 
88.666069 207.528946 -3.771372 83 81 56 0.502800 -0.858054 0.104571 
28.728193 29.942022 -21.160673 39 34 15 -0.479691 -0.874567 0.070911 
27.895069 30.189007 -23.327288 43 37 21 -0.475514 -0.878400 0.047963 
16.086830 64.011078 -9.737924 97 100 81 -0.893267 -0.044596 0.447309 
17.991741 66.294899 -6.265036 78 83 63 -0.882920 -0.050648 0.466784 
19.370605 67.293594 -3.765743 94 97 70 -0.869032 -0.071141 0.489615 
48.336823 281.217010 -75.570854 51 57 31 -0.568081 0.809627 0.147611 
47.826042 280.902069 -75.890251 80 86 58 -0.567828 0.809267 0.150527 
53.438087 284.325165 -72.216095 69 71 47 -0.559053 0.817077 0.140875 
52.201057 282.817963 -69.679413 52 49 32 -0.574827 0.802957 0.157590 
51.994648 282.216766 -67.772583 73 80 62 -0.582438 0.796150 0.164046 
53.833324 283.271179 -66.545555 75 85 60 -0.574553 0.802574 0.160515 
57.942322 285.950470 -65.482094 50 45 26 -0.559842 0.813637 0.156756 
53.522358 283.022308 -66.386383 79 89 64 -0.574827 0.802957 0.157590 
55.505730 284.015808 -64.314873 62 70 47 -0.564687 0.812017 0.147504 
14.872157 71.177063 85.756508 51 52 36 -0.407192 -0.089116 -0.908984 
12.990021 69.362373 86.819077 62 57 38 -0.354896 -0.107421 -0.928714 
-85.393448 131.092606 26.324524 26 26 18 -0.936520 0.239380 0.256178 
-48.839348 274.948395 38.829529 145 143 105 -0.553597 0.647826 0.523309 
-3.935431 178.924561 -75.068848 54 55 47 0.004088 -0.819033 -0.573732 
16.822231 73.272346 90.114014 128 123 91 0.530630 0.042949 0.846515 
31.595779 60.372589 86.369804 122 107 78 0.089630 0.510750 0.855044 
71.032913 232.024872 57.025375 115 122 91 0.563093 0.680055 0.469522 
56.037548 264.749481 56.594486 101 110 81 -0.386881 0.875414 0.289782 
55.570847 264.615936 56.270233 97 104 71 -0.389457 0.874384 0.289441 
58.128647 265.461487 57.654881 71 76 46 -0.385856 0.876120 0.289014 
58.987865 265.955078 57.396942 63 75 39 -0.383276 0.877141 0.289350 
55.838795 264.278015 57.887112 79 86 53 -0.387567 0.873926 0.293335 
83.866302 293.207123 -7.478156 91 108 74 -0.466549 0.852553 0.235554 
85.690369 294.183624 -7.221213 91 112 81 -0.468921 0.851343 0.235219 
80.957596 290.989532 -5.313775 74 90 64 -0.459144 0.859578 0.224303 
81.157692 290.849426 -4.322112 68 88 63 -0.458264 0.860936 0.220868 
81.789062 291.447784 -5.248014 86 101 68 -0.460335 0.858789 0.224885 
-4.717871 105.552361 6.317122 6 6 4 0.136076 -0.955177 0.262905 
15.429190 77.899750 20.196922 35 41 27 -0.740906 -0.052820 -0.669528 
13.786659 77.785507 21.674652 53 59 45 -0.716925 -0.067798 -0.693845 
50.334251 280.711761 36.355488 111 93 69 0.332353 0.734420 0.591751 
52.190445 292.087036 -12.065537 109 113 88 0.349316 0.933722 -0.078364 
53.359047 291.635040 -11.760403 127 121 97 0.345160 0.933409 -0.098042 
-96.045921 211.546555 33.119244 7 7 5 0.681155 0.651893 0.333262 
-96.218224 211.851791 32.721512 6 6 4 0.680443 0.654460 0.329666 
-118.209999 199.448044 38.746582 90 84 58 -0.597330 0.113008 0.793994 
-47.957687 76.771980 -71.077660 73 67 51 0.439633 -0.718343 0.539172 
-47.464451 64.461334 -82.996284 49 46 27 -0.254483 -0.794674 0.551119 
-10.366135 215.162033 -83.248497 58 43 24 -0.775472 0.631198 0.015260 
-9.710527 215.601486 -82.172432 62 57 51 -0.791083 0.607311 0.073222 
-1.921667 221.704727 -84.666336 156 154 133 -0.257963 0.322089 -0.910886 
-101.568550 211.954056 -22.104961 59 47 31 -0.920344 0.062781 -0.386037 
10.788242 42.762714 -47.261475 31 38 30 0.179241 0.817880 0.546759 
-11.571397 60.440109 -59.518208 54 61 53 0.407654 0.758008 0.509158 
76.876518 256.028229 -60.527832 127 134 126 0.499273 0.746437 -0.439953 
-117.649834 222.319138 31.466908 46 46 36 -0.434173 0.123039 0.892388 
-113.368637 115.295265 1.684977 114 107 97 -0.792064 0.475884 0.382320 
-86.175941 136.259872 2.714229 5 5 3 0.054983 0.913257 0.403657 
3.174599 85.401649 78.846741 88 90 76 0.385429 0.736415 -0.556001 
4.672954 86.486229 80.974770 78 84 70 0.389376 0.731106 -0.560241 
7.633031 82.228233 78.042931 66 64 49 0.393873 0.750157 -0.531157 
7.874378 82.971268 79.019325 82 80 65 0.394841 0.748723 -0.532461 
-54.628468 108.921097 58.661682 68 61 45 0.357010 0.904910 -0.231692 
-18.355396 146.250107 41.644054 47 35 19 -0.895262 -0.033556 0.444275 
-18.519646 152.714188 40.882740 48 48 36 -0.852159 -0.228554 0.470731 
94.223137 241.742966 25.624521 50 59 38 0.881621 -0.262834 0.391998 
95.337494 246.289948 27.158895 117 115 92 0.899724 -0.055639 0.432899 
25.316835 49.833202 -10.542737 123 125 103 0.772582 0.364426 -0.519914 
26.203184 50.172520 -9.115099 117 125 102 0.777840 0.352685 -0.520171 
22.811628 72.390953 -9.249771 103 118 99 0.898839 -0.189610 -0.395142 
22.609749 69.891548 -8.979957 127 142 123 0.882240 -0.127260 -0.453274 
44.451874 239.829025 -84.485519 157 174 156 0.179489 0.664264 -0.725628 
63.399334 258.350983 -69.535904 83 81 58 0.366227 0.889409 -0.273549 
-91.951950 154.125076 26.645994 55 59 44 0.125585 -0.802269 0.583603 
-85.211037 154.702316 30.841736 24 23 18 0.067798 -0.994747 0.076690 
74.809708 280.894958 24.907566 84 91 58 -0.386829 0.890744 0.238619 
55.941891 279.817932 32.320744 92 86 70 0.589286 0.692203 0.416650 
55.811798 280.945984 30.658966 106 134 122 0.603760 0.686466 0.405263 
56.803444 280.157013 30.272154 66 74 50 0.630329 0.670035 0.392095 
45.683247 146.221588 -58.232307 108 106 81 0.217804 -0.290874 -0.931640 
47.587982 146.994431 -57.983112 97 81 58 0.240355 -0.291555 -0.925865 
45.867592 146.646942 -58.326546 117 126 107 0.217411 -0.287544 -0.932765 
70.982269 164.735489 -45.317200 207 215 164 0.870461 -0.194260 -0.452284 
70.640739 164.071350 -45.678829 167 183 134 0.863526 -0.194702 -0.465204 
72.350533 164.698273 -42.542500 137 133 104 0.903317 -0.207342 -0.375536 
-2.342817 227.012833 75.930862 71 58 42 -0.472082 0.783559 0.403947 
1.221015 229.162781 76.067810 65 59 37 -0.468496 0.793706 0.387998 
-2.703350 227.074707 75.216881 87 78 61 -0.468937 0.783724 0.407277 
-0.394488 228.209213 75.953079 110 97 62 -0.469705 0.789298 0.395456 
22.424223 241.889862 73.704987 50 42 23 -0.428170 0.829481 0.358652 
24.709576 242.959793 74.135590 77 70 44 -0.425845 0.824777 0.372020 
22.927900 242.042648 74.025131 80 67 48 -0.425231 0.826751 0.368323 
25.080679 243.465286 73.305595 73 67 43 -0.430583 0.831198 0.351721 
-60.864544 67.336006 -70.747528 98 91 65 -0.569072 0.555563 -0.606223 
-69.261444 79.869049 -52.571674 79 68 48 -0.813637 0.156756 -0.559842 
3.379062 81.291458 37.756382 73 76 59 -0.920640 -0.262835 0.288687 
14.671052 66.868195 38.065102 132 132 108 -0.299740 -0.591465 0.748548 
14.577778 85.952805 -32.031082 10 12 7 -0.809721 0.294015 0.507845 
-14.648604 103.526917 -37.542439 2 2 2 0.045702 -0.998004 -0.043576 
-16.342159 103.549553 -38.522282 2 2 2 0.045795 -0.997901 -0.045795 
-17.720701 103.153069 -36.104813 4 4 4 0.042699 -0.998749 -0.026036 
-82.698700 150.553894 1.809183 2 2 2 0.253508 -0.940610 0.225802 
-92.046272 149.657013 5.070848 3 5 2 0.031311 -0.996566 -0.076659 
38.258583 205.654144 74.859474 70 79 50 0.144988 -0.228584 0.962667 
-52.364288 277.746338 29.362350 111 110 79 -0.643790 0.657030 0.392232 
-68.189110 269.802094 8.826597 126 120 88 -0.843519 0.529519 0.089918 
80.428368 207.416794 -37.644321 76 77 61 0.470333 -0.822690 -0.319323 
78.781288 205.364304 -34.467133 67 68 52 0.390110 -0.820027 -0.418771 
87.160698 194.518311 -28.843740 76 74 59 0.156851 0.127210 -0.979395 
86.969627 190.385925 -29.521595 114 117 96 0.168344 0.155686 -0.973356 
-13.364454 134.445145 -57.453194 47 45 30 0.948239 0.068751 -0.310026 
90.358505 255.655350 -22.117750 93 88 56 0.953565 0.287501 -0.089763 
88.779419 279.933899 -23.786150 166 160 126 0.912319 -0.336879 -0.232779 
90.447037 282.523682 -21.057610 97 82 53 0.919685 -0.342572 -0.191897 
89.913040 281.226044 -21.150040 123 131 94 0.918737 -0.343280 -0.195143 
90.051582 282.804535 -23.197697 160 153 127 0.914593 -0.343152 -0.213931 
88.175087 275.621246 -19.146063 81 85 60 0.921816 -0.335592 -0.193992 
-103.892128 165.789871 -15.319311 113 99 72 -0.232134 -0.388861 -0.891572 
-106.132355 162.526550 -9.780856 61 57 45 -0.234083 -0.550328 -0.801464 
-108.130928 204.742615 -20.557579 58 48 36 0.360822 0.342397 -0.867509 
-114.354752 181.841370 -10.621542 76 72 60 0.001253 -0.344659 -0.938727 
20.518282 79.028603 -23.512154 127 133 121 0.894786 -0.323076 -0.308188 
21.373234 80.445496 -22.556982 136 145 128 0.894739 -0.326036 -0.305194 
21.475504 80.945358 -22.806574 106 117 100 0.894190 -0.323939 -0.309011 
20.009174 77.018951 -22.796850 129 141 127 0.899739 -0.321653 -0.294972 
19.276413 77.067650 -25.006647 76 90 75 0.896255 -0.316588 -0.310642 
31.621073 104.505127 -3.639601 91 105 88 0.652824 -0.721707 0.230132 
22.284073 277.727844 -60.514175 64 39 19 -0.136592 0.736999 -0.661948 
12.276585 65.376968 -34.169868 72 63 46 -0.931854 -0.053887 0.358810 
12.135352 69.737251 -33.827759 64 58 44 -0.937666 -0.056077 0.342985 
12.360630 69.591141 -33.337067 49 46 31 -0.947710 -0.060602 0.313325 
-20.593243 91.393112 86.023209 64 65 49 -0.129740 -0.765018 -0.630805 
-4.265087 84.091301 79.866051 46 48 37 -0.319323 -0.822690 0.470333 
-1.947331 84.706192 81.625351 41 41 31 -0.315555 -0.773670 0.549418 
-47.201431 170.039230 -49.699928 79 48 19 -0.320237 -0.406872 -0.855514 
-62.801041 158.710938 -21.978704 53 51 39 -0.703716 -0.706618 0.073999 
38.796406 195.978333 65.275558 60 71 39 0.423252 -0.702101 0.572636 
57.398647 196.224228 43.847744 30 34 20 0.380889 -0.817556 -0.431886 
-111.454506 223.640182 -24.224760 186 170 144 -0.570377 0.248466 -0.782901 
-120.893990 237.440033 5.459143 71 66 47 -0.393901 0.716933 0.575195 
51.789597 167.563263 33.869137 155 172 136 0.340528 -0.269769 0.900703 
52.351566 172.898346 35.080936 137 144 110 0.347807 -0.253884 0.902537 
48.767456 167.904556 35.061665 111 141 107 0.334407 -0.269588 0.903047 
53.876350 174.764053 35.020416 125 129 102 0.350223 -0.244717 0.904133 
49.206001 168.211502 34.983269 180 194 161 0.337020 -0.269322 0.902155 
50.008049 171.400620 35.537693 133 151 127 0.338873 -0.256722 0.905129 
70.106804 139.481613 6.602331 173 192 160 0.853511 -0.368456 0.368456 
70.280098 136.237457 2.998349 142 156 139 0.885520 -0.350299 0.305196 
21.645271 42.245163 -11.948765 105 97 74 -0.807502 -0.449323 0.382164 
21.299543 43.165779 -11.593246 112 101 71 -0.812007 -0.441898 0.381276 
33.518475 38.305283 11.008539 122 111 91 -0.179060 -0.886566 0.426542 
34.106953 38.369518 11.308184 161 146 125 -0.157615 -0.886406 0.435250 
-88.610199 74.372177 -23.125721 100 104 79 0.324263 -0.126178 0.937514 
-91.944046 72.726898 -22.720003 147 132 103 0.302861 -0.116074 0.945940 
-101.633812 103.585030 -8.367645 77 78 60 -0.330904 -0.904471 0.269135 
15.796062 115.786789 30.009321 70 68 53 0.964739 0.066490 -0.254671 
14.537292 124.783096 31.566486 40 46 32 0.959567 0.235614 -0.154005 
-7.864596 278.460266 52.743652 91 81 46 0.020988 0.684209 0.728984 
-13.883305 285.987000 43.103832 81 78 43 -0.138230 0.804110 0.578186 
54.672749 291.288788 4.239873 70 44 17 0.517288 0.815545 0.259421 
-124.573402 229.713150 -15.148397 99 94 74 -0.944762 0.327467 -0.013801 
-126.323044 222.015182 -12.804313 161 162 131 -0.997440 0.070569 -0.011586 
30.988766 59.526314 77.494949 114 98 72 -0.636814 -0.659971 0.398629 
29.582932 61.032581 77.743912 116 98 74 -0.628315 -0.661471 0.409482 
32.801155 57.489071 77.060165 118 107 79 -0.646555 -0.656476 0.388594 
32.941288 57.018745 76.653244 119 110 81 -0.641556 -0.654819 0.399522 
4.344008 80.297256 80.522430 50 48 36 -0.460136 -0.740506 0.489822 
5.885656 79.562233 81.129501 63 61 46 -0.470474 -0.719842 0.510373 
-3.178573 88.780556 41.622330 14 14 12 0.064244 -0.800910 -0.595329 
-7.033426 87.324562 44.042999 31 39 26 -0.081102 -0.900369 -0.427503 
92.879219 288.930054 12.425237 74 57 31 0.775522 0.545264 0.318204 
91.887680 287.385162 17.224611 103 74 42 0.764949 0.549153 0.336578 
94.953056 290.340210 -9.173613 91 77 40 0.950135 -0.306454 -0.057701 
94.060219 287.525543 -7.930297 151 152 121 0.947447 -0.314092 -0.060750 
94.397346 288.106750 -5.001032 100 80 53 0.951341 -0.305291 -0.041803 
94.795929 289.384430 -5.705429 131 112 80 0.952311 -0.302261 -0.041735 
94.190247 287.500183 -5.039452 100 89 61 0.950752 -0.306735 -0.044547 
94.541283 289.068237 -8.784896 101 88 53 0.948732 -0.310237 -0.060503 
94.710312 288.561523 -1.683406 110 96 67 0.955647 -0.293759 -0.021071 
-26.352829 40.931419 -91.402565 116 105 73 0.736494 0.123493 -0.665076 
8.660753 89.423889 55.981068 73 75 62 0.076639 0.759163 0.646373 
55.916828 211.591400 -63.714016 84 79 50 0.192618 -0.258190 -0.946697 
75.025230 194.853882 -39.332237 56 56 46 0.977787 -0.097164 -0.185718 
-96.818909 110.456764 37.825211 40 36 24 -0.221686 0.782876 0.581344 
26.290556 63.496086 47.099392 118 121 94 -0.923897 -0.360444 0.128434 
25.609915 65.217407 46.084602 123 130 99 -0.929443 -0.342861 0.136318 
15.667607 77.075478 42.183533 47 41 29 -0.142431 -0.096949 0.985045 
74.023987 184.874802 -40.450291 104 93 73 0.886480 0.120561 -0.446786 
86.691681 195.412781 -28.739450 62 58 46 0.151612 0.129425 -0.979930 
82.897438 195.477951 -28.970243 104 94 84 0.139315 0.171947 -0.975205 
47.557549 221.122284 -80.156319 71 73 51 0.352800 -0.577161 -0.736490 
-52.280582 159.080002 36.689991 13 14 8 0.666202 0.572229 0.478256 
-22.047974 235.721268 -73.730812 145 130 99 -0.641721 0.638387 -0.425036 
6.760549 259.649597 -68.513557 72 53 36 0.071254 0.383160 -0.920929 
9.396505 93.214714 41.475288 14 16 11 0.480149 0.557106 -0.677562 
-40.209145 102.149002 58.921501 54 63 60 0.072635 -0.900400 -0.428958 
12.291426 76.118874 70.126205 51 59 38 -0.483945 -0.720097 -0.497250 
10.657228 76.786697 70.269402 70 80 69 -0.474997 -0.736494 -0.481617 
-77.392693 143.014572 -1.976785 22 15 7 -0.857044 0.507404 0.089542 
-100.858131 240.955765 -11.525261 57 41 18 0.307217 0.951502 0.016169 
-75.386261 157.247177 -11.180433 58 59 51 0.378690 -0.147816 -0.913643 
-84.331512 149.200195 -4.730726 29 31 26 0.325234 -0.941187 -0.091596 
-89.650085 176.652603 45.751499 80 80 68 0.580457 -0.234984 0.779649 
-63.436234 101.018021 -32.019016 52 54 40 0.593249 -0.478969 0.647028 
-23.319384 107.364357 -30.773796 3 3 3 -0.047074 -0.723233 0.688997 
38.852119 49.909935 63.711605 91 95 81 -0.765590 -0.538988 -0.351232 
37.205551 53.100681 62.614655 118 120 98 -0.764253 -0.533841 -0.361844 
37.957302 51.076950 63.821629 67 68 52 -0.766047 -0.536071 -0.354682 
14.763595 75.406235 68.716728 58 61 42 -0.515267 -0.708701 -0.481916 
14.942316 75.734024 67.997856 83 80 61 -0.505577 -0.699131 -0.505577 
72.661903 129.241272 -21.783035 106 118 94 0.895815 0.433279 -0.098916 
71.690002 130.457062 -24.047394 95 116 101 0.884661 0.438711 -0.157820 
72.673042 127.003922 -13.884991 112 128 101 0.931545 0.206542 0.299275 
73.337982 125.121010 -14.029135 176 196 169 0.926147 0.190304 0.325632 
-77.679070 105.567497 35.269016 32 28 19 0.252309 -0.925133 0.283670 
-47.574711 104.504051 24.818430 12 9 4 -0.156464 -0.961134 0.227464 
-22.743889 118.821342 -56.715355 84 85 69 0.361806 -0.620472 -0.695781 
83.304260 249.507355 42.424252 105 115 90 0.653517 0.370381 0.660101 
37.039974 63.530243 43.669659 131 123 100 0.634012 0.750683 -0.185752 
16.634859 64.873589 -30.678307 93 97 82 0.995084 0.074326 -0.065451 
16.861376 63.685432 -28.450748 137 139 117 0.996406 0.059893 -0.059893 
16.738293 63.740295 -31.465021 147 141 115 0.993823 0.090755 -0.063865 
17.115309 60.604256 -31.294706 105 114 97 0.992841 0.107060 -0.052967 
20.609451 73.468010 -16.342957 73 65 42 0.904894 -0.322231 -0.278089 
18.481131 72.755333 -22.450569 110 119 100 0.916707 -0.291087 -0.273709 
18.877005 74.312592 -22.932245 63 58 39 0.903141 -0.310869 -0.296136 
-30.004074 287.598816 -36.441212 98 74 50 -0.415465 0.750465 -0.513995 
-14.219557 290.816528 -39.564590 121 112 97 -0.092400 0.860032 -0.501804 
-13.688466 290.904144 -39.541817 76 67 38 -0.083406 0.860923 -0.501852 
59.463280 193.149673 -58.988270 111 125 108 0.726350 0.247369 -0.641268 
57.409729 195.771378 -60.364769 146 152 126 0.753149 0.250002 -0.608494 
64.168495 201.229477 -54.382427 75 62 45 0.353315 -0.322987 -0.877979 
28.114691 38.288158 -0.109815 136 131 101 -0.795696 -0.552783 0.247585 
29.651987 36.314335 0.534300 115 125 98 -0.761975 -0.591595 0.263457 
29.217192 37.064655 0.749073 114 124 99 -0.772334 -0.584342 0.249089 
22.053244 49.871529 15.456942 111 119 95 -0.899846 -0.428564 -0.081303 
23.562372 47.026371 13.260701 95 106 74 -0.883227 -0.466790 -0.044910 
89.904388 187.410919 -16.730825 118 121 92 0.470007 -0.020086 0.882434 
89.200249 191.279877 -16.455687 98 105 87 0.450867 -0.017290 0.892424 
88.964996 190.389496 -16.351688 70 81 64 0.460401 -0.011941 0.887631 
82.367271 181.141815 -6.150060 204 221 215 0.953629 0.159161 0.255460 
81.365974 186.230988 -7.504423 166 165 134 0.923085 0.267623 0.276210 
11.400970 36.834187 -47.676891 34 35 21 -0.321521 -0.892782 -0.315539 
10.672794 38.486122 -50.458534 43 40 23 -0.441395 -0.878391 -0.183304 
17.896214 30.600231 -50.627876 81 76 56 -0.670601 -0.355796 0.650926 
16.019476 30.327492 -53.116890 81 74 55 -0.656148 -0.287165 0.697859 
18.989813 28.906073 -50.431900 78 72 56 -0.664590 -0.347808 0.661324 
-42.973663 182.386963 -61.935333 72 68 41 -0.386795 -0.758902 -0.523887 
74.947151 206.008942 26.256811 113 108 78 0.390535 -0.255868 0.884315 
82.431984 194.984940 -1.088458 76 68 57 0.923181 -0.142989 -0.356778 
-95.292763 103.719231 49.728123 154 137 117 -0.896264 0.243630 0.370613 
74.167511 188.093719 21.161737 154 170 143 0.893934 0.128919 0.429258 
75.470840 186.461319 18.748730 118 137 118 0.902236 0.104265 0.418448 
74.490372 191.729782 18.795246 132 152 125 0.882500 0.067672 0.465419 
78.758484 205.442596 24.228901 124 121 88 0.491903 -0.468716 0.733714 
30.107866 36.976795 3.643692 124 130 102 -0.705512 -0.667801 0.237266 
50.743912 9.494206 -22.910967 69 64 42 -0.526543 -0.546730 0.651029 
-29.780993 163.815338 -58.222687 77 81 56 -0.367526 0.522956 -0.769053 
-37.882587 157.614426 -48.073013 70 53 37 -0.992925 0.066647 -0.098276 
-84.642021 123.088539 39.908531 37 40 23 0.022608 0.894995 0.445503 
48.618778 18.821749 -7.013525 90 83 64 -0.823861 -0.555559 0.112278 
49.473820 17.515074 -7.279756 116 111 89 -0.816019 -0.562212 0.134282 
51.923019 12.770716 -16.612101 43 44 30 -0.798497 -0.596346 0.082304 
-17.602982 84.349808 -49.958794 42 36 22 0.013991 -0.093632 0.995509 
-17.082026 87.012367 -49.646954 43 41 28 0.029497 -0.092860 0.995242 
-35.946114 70.518745 -56.266041 56 59 42 -0.390720 -0.830477 0.397047 
-112.568062 118.387749 1.080488 80 68 54 -0.874811 0.152330 0.459892 
-107.027596 112.689240 -10.319211 89 86 67 -0.268728 0.881247 -0.388830 
-108.238350 174.095367 43.571194 128 119 102 -0.644083 -0.046920 0.763515 
-83.310135 194.393234 35.549541 73 75 62 -0.122665 0.233710 0.964538 
62.820522 269.101501 52.212574 98 83 64 -0.381952 0.890231 0.248195 
64.637749 269.540985 53.486008 99 89 64 -0.377713 0.888298 0.261264 
61.040306 267.076508 56.629547 74 74 46 -0.383784 0.880446 0.278432 
62.386887 268.867645 52.366966 67 55 29 -0.384487 0.889218 0.247912 
70.931633 267.725494 55.847698 80 68 52 0.583894 0.273750 0.764284 
73.431343 269.284027 53.264133 154 144 93 0.647967 0.220153 0.729158 
-127.638779 216.739441 18.171558 54 48 34 -0.768833 -0.452159 0.452159 
-128.207382 214.932953 16.669333 42 36 24 -0.672468 -0.534956 0.511478 
-123.088440 168.816116 9.112657 152 162 127 -0.781172 0.283630 -0.556169 
-121.382080 166.149048 -2.395244 93 91 52 -0.852813 -0.098566 -0.512830 
-11.238543 274.368561 56.124760 118 106 68 -0.038027 0.629553 0.776026 
-54.981255 104.895676 -22.211296 7 3 2 0.426050 -0.874523 0.231711 
-54.718540 105.540123 5.139725 8 7 2 0.064124 -0.996634 -0.051082 
-56.220829 105.421341 6.153413 7 6 2 0.066022 -0.996831 -0.044376 
-62.047554 105.002739 6.951340 7 6 4 0.082757 -0.996314 -0.022570 
-62.028503 104.945290 11.327652 6 5 3 0.071160 -0.997301 -0.018056 
-62.740753 104.976799 5.269724 8 7 5 0.087403 -0.995962 -0.020502 
-60.230011 105.179962 3.229328 8 7 3 0.085790 -0.995815 -0.031493 
-61.996330 104.913574 13.857076 7 3 0 0.066371 -0.997670 -0.015803 
-61.965084 104.996590 7.838269 7 6 4 0.080450 -0.996504 -0.022526 
-61.509449 105.035469 7.318998 7 6 4 0.078482 -0.996609 -0.024727 
95.012573 180.749008 -26.930506 192 195 138 0.894182 0.153575 -0.420538 
95.015457 180.835678 -26.897848 222 219 164 0.896392 0.152973 -0.416029 
92.506172 232.622726 -14.745556 194 188 156 0.990366 0.074940 -0.116446 
92.175224 228.060181 -19.615368 139 169 135 0.985490 0.082025 -0.148596 
92.546432 229.056473 -15.630056 167 176 131 0.989715 0.084899 -0.115137 
92.176323 226.543076 -20.148344 201 221 186 0.984953 0.087153 -0.149235 
92.323746 227.814560 -18.251703 132 152 117 0.987015 0.086084 -0.135611 
92.477654 232.192200 -15.178574 184 185 145 0.990006 0.075264 -0.119264 
-118.815346 190.082596 -1.384533 35 32 27 0.151797 -0.774014 -0.614703 
-119.709808 190.390091 -2.335416 42 38 29 0.226156 -0.759571 -0.609840 
-121.178566 175.628586 -0.657601 90 85 66 -0.377983 0.554702 -0.741239 
35.613937 4.104031 -53.205315 154 161 117 0.361103 -0.134203 -0.922819 
34.721882 3.032518 -53.301994 186 195 164 0.309568 -0.145920 -0.939614 
67.782364 251.487381 -72.424759 187 185 144 0.562491 0.020629 -0.826546 
63.982334 247.411163 -74.343330 139 128 96 0.418846 -0.055218 -0.906377 
15.854918 210.391586 78.534531 112 110 61 0.111085 0.231108 0.966566 
-11.647123 211.696503 79.258514 141 129 79 0.114171 -0.521718 0.845444 
-11.205298 207.079178 76.162865 102 79 45 0.108327 -0.532968 0.839172 
-7.899811 208.700546 76.735970 98 84 45 0.135942 -0.510149 0.849275 
-7.833574 210.399506 77.841042 124 106 66 0.138877 -0.504341 0.852264 
-10.251802 209.867355 77.850960 135 121 76 0.120346 -0.520531 0.845319 
90.719833 298.963531 -24.985125 44 37 31 0.335580 0.937217 -0.094925 
91.955833 297.412445 -11.686350 91 88 53 0.212718 0.956564 0.199340 
92.008522 296.650391 -8.085455 142 146 96 0.164339 0.961055 0.222186 
-81.525055 244.662445 4.722917 133 131 92 -0.930844 0.326003 0.165083 
-81.268135 244.718765 5.253532 111 104 76 -0.938157 0.319055 0.134410 
-82.640121 238.933624 -4.141654 83 71 55 -0.952229 0.297652 -0.068292 
-44.224392 89.151978 -67.581482 72 73 41 0.133620 0.835491 -0.533011 
32.717850 200.045258 -78.316414 102 97 68 0.577943 -0.800114 0.160623 
17.660347 202.134460 -84.002243 86 81 61 0.012406 -0.602377 -0.798115 
-75.862473 72.995674 -41.626423 91 57 29 -0.703437 -0.101755 -0.703437 
-77.815498 90.013664 -41.097511 153 139 110 -0.758027 0.067604 -0.648710 
-77.710350 89.763039 -41.228596 137 122 91 -0.759587 0.055789 -0.648009 
-56.655186 103.342369 65.498993 171 162 133 -0.535899 0.613664 0.579853 
-54.505676 103.750443 67.132950 163 157 121 -0.524379 0.615429 0.588451 
-52.458405 104.840942 68.016724 171 161 125 -0.510235 0.624743 0.591064 
7.829749 86.954613 87.257233 142 136 100 0.472082 0.783559 0.403947 
3.398675 89.087318 87.767479 72 65 39 0.442322 0.768760 0.461909 
-28.557878 96.754967 -56.843334 85 88 71 0.685354 -0.061782 -0.725584 
-32.949409 87.158379 -57.878242 21 22 16 0.650830 -0.516292 -0.556653 
22.252657 70.706413 2.865174 90 79 59 -0.993244 -0.098084 0.062007 
22.289621 90.524536 -2.084069 53 50 35 -0.979638 0.196404 0.041661 
22.876200 93.522446 -2.679754 50 52 41 -0.976411 0.214739 0.022542 
22.221567 90.204323 -2.151342 55 51 42 -0.979638 0.196404 0.041661 
23.295889 95.599052 -2.768193 24 27 18 -0.974029 0.226050 0.013019 
7.580188 126.170708 45.383896 70 69 48 0.503560 -0.119758 0.855620 
-9.323948 120.202232 41.516113 12 12 4 -0.454142 -0.503685 0.734885 
-9.006678 118.909424 40.569195 33 34 18 -0.407063 -0.475177 0.780068 
-109.284111 193.138977 43.915752 86 89 62 -0.250789 0.296647 0.921469 
-92.793320 198.478485 38.991562 76 76 68 0.623768 0.443159 0.643835 
-90.425064 195.929581 39.794220 46 43 36 0.674654 0.557468 0.483809 
32.433601 124.201584 -50.533649 136 139 110 0.080402 -0.500748 -0.861851 
30.810301 124.596153 -50.842133 79 95 68 0.056615 -0.487441 -0.871318 
28.443171 124.723129 -51.027657 110 114 89 0.022891 -0.480707 -0.876583 
-27.141632 129.414536 -59.343433 84 66 42 -0.330146 0.184039 -0.925815 
-28.534878 150.190079 -60.424141 176 175 145 0.187874 0.193129 -0.963018 
-55.993969 247.836288 -50.505375 81 47 22 -0.668277 0.326821 -0.668277 
-54.109341 246.624329 -51.846722 152 139 122 -0.666684 0.251788 -0.701523 
-62.655838 269.732117 -23.685106 153 145 124 -0.716252 0.619243 -0.321748 
-2.089484 169.595154 63.831135 123 108 89 0.284413 -0.406087 0.868448 
-13.131810 176.768997 68.496216 90 88 63 -0.276369 -0.191121 0.941856 
45.878902 249.039200 -79.244377 86 87 69 -0.146633 0.159166 -0.976302 
39.168514 257.196014 -79.969406 135 124 104 0.552693 -0.373353 -0.745076 
42.347805 261.351196 -80.359077 91 85 69 0.541409 -0.413051 -0.732301 
42.434834 260.062347 -79.405479 105 93 71 0.537327 -0.402584 -0.741084 
39.509609 258.145996 -80.357841 129 124 94 0.551743 -0.381472 -0.741660 
38.681061 255.628464 -79.269958 149 139 114 0.554189 -0.355916 -0.752462 
-4.509940 87.793777 -47.282799 37 37 25 -0.198856 0.074418 0.977199 
-2.755834 90.036987 -47.391346 27 29 18 -0.192390 0.068970 0.978892 
-2.040329 86.512787 -46.775139 45 46 32 -0.222620 0.062727 0.972885 
-4.373202 92.421288 -47.953743 39 37 25 -0.164094 0.077855 0.983368 
-9.208374 99.116066 -44.223473 32 35 18 0.011954 -0.994357 -0.105413 
-5.965902 99.289948 -45.004444 28 30 17 -0.005234 -0.997668 -0.068047 
-30.355013 169.807388 56.942009 76 86 61 -0.318424 -0.077313 0.944790 
47.791168 49.375179 59.809376 207 203 178 0.767656 0.490583 0.412350 
47.873356 49.639565 59.330650 152 147 109 0.768686 0.491241 0.409639 
49.914906 45.415451 60.773170 175 167 128 0.765128 0.507367 0.396431 
47.958347 50.294540 58.364101 176 167 126 0.768686 0.491241 0.409639 
48.383797 50.242474 57.641350 185 174 129 0.770016 0.490010 0.408613 
48.049313 51.249672 57.015621 175 162 127 0.771244 0.487530 0.409265 
34.324875 62.867386 76.196281 61 83 71 0.472606 0.552765 -0.686364 
38.572540 56.241756 73.982384 104 113 92 0.534897 0.585518 -0.609142 
34.402454 61.634357 75.386917 123 128 106 0.503699 0.574453 -0.645206 
26.293726 224.320908 70.526291 51 62 45 0.478523 -0.518539 0.708614 
28.716835 225.521606 69.697083 35 44 27 0.467578 -0.490709 0.735238 
24.089903 223.757736 71.642616 38 46 23 0.483598 -0.537145 0.691093 
20.917171 213.016830 68.495171 27 30 21 0.616579 0.413823 0.669761 
-32.331142 199.106064 -71.134636 91 87 76 -0.390960 0.541455 -0.744296 
-104.433876 105.232742 -7.737399 49 47 35 -0.366560 -0.909931 0.194061 
-106.906364 105.852577 -4.300410 28 26 14 0.014924 -0.999876 0.004975 
-39.488785 69.140335 -72.730331 36 36 26 -0.816259 -0.577554 0.012347 
-48.042656 70.581825 -76.511902 53 46 28 0.126464 -0.626370 0.769200 
88.227615 273.338379 -29.371246 74 60 33 0.830586 0.551350 0.078357 
26.047651 221.070251 68.381821 88 87 67 0.349902 -0.422079 0.836312 
22.339041 219.098618 69.219284 71 83 73 0.499979 -0.395749 0.770327 
-115.276047 151.007523 7.366226 48 52 38 -0.275651 -0.881181 -0.384105 
-51.394020 201.007385 57.682785 85 96 79 -0.655755 0.432165 0.619047 
-33.116817 207.041794 72.600990 93 82 62 -0.580690 0.584076 0.567146 
63.522858 146.459946 19.209581 179 180 140 0.542146 -0.388183 0.745246 
63.589668 151.691711 21.816513 183 200 166 0.533898 -0.368373 0.761088 
63.787403 150.959183 21.311192 115 132 90 0.538210 -0.372357 0.756096 
64.266586 152.277771 21.654993 176 181 140 0.541812 -0.366089 0.756584 
49.421467 132.244873 19.533192 75 75 51 0.345386 -0.479084 0.806962 
48.285015 132.501862 20.138269 113 121 106 0.330662 -0.476216 0.814789 
37.276939 52.729877 52.250397 121 124 97 -0.505898 -0.696236 0.509237 
38.523228 52.147575 52.578949 134 130 101 -0.495814 -0.696143 0.519186 
37.406120 51.792274 51.158012 106 125 103 -0.517710 -0.707482 0.481088 
16.268515 104.518707 -15.016097 11 10 8 -0.493673 -0.856969 0.147955 
-73.257835 230.998169 -34.967945 85 66 49 -0.861772 0.122698 -0.492235 
-60.938263 258.733826 -39.862495 119 108 88 -0.732630 0.388442 -0.558897 
-56.632309 209.047073 -59.000275 57 46 28 -0.735885 0.635466 -0.233789 
-50.565632 213.966080 -62.461945 78 70 59 -0.674019 0.730311 -0.111102 
-63.133312 105.612274 48.163486 32 31 11 -0.026187 -0.547173 -0.836610 
-58.541775 106.548767 31.398842 19 18 13 0.035846 -0.986347 0.160730 
-65.195930 106.456779 32.678303 23 26 15 0.044955 -0.987860 0.148698 
-66.480103 107.042061 36.999294 41 52 35 0.019168 -0.988845 0.147707 
-63.057339 106.559952 32.764389 17 20 11 0.038023 -0.987456 0.153246 
-64.958763 106.943039 35.895683 33 42 25 0.021511 -0.988364 0.150576 
-64.029953 106.129257 30.132500 16 13 8 0.059558 -0.986792 0.150646 
-119.165146 173.944016 33.055325 103 99 72 -0.950278 0.049746 0.307405 
-78.486641 93.907600 -30.978294 65 73 58 0.636176 -0.521428 0.568677 
-54.231174 82.325706 -52.558674 61 62 57 -0.547621 -0.769239 0.329215 
-53.858364 82.931702 -50.881962 43 46 35 -0.542520 -0.771119 0.333239 
15.522366 72.232063 -16.475691 43 44 38 -0.914524 0.302909 0.268125 
15.329299 73.784203 -18.630096 26 27 21 -0.909992 0.316963 0.267301 
16.583574 75.456032 -17.116041 13 16 9 -0.896382 0.340417 0.283929 
13.693724 58.989342 -30.097237 78 73 54 -0.992240 -0.087920 0.087920 
13.733107 58.855949 -27.475357 58 52 38 -0.993750 -0.110417 0.016399 
-31.966747 245.598999 70.570984 93 94 54 -0.153634 0.297751 0.942200 
-70.128181 173.217072 39.718651 28 25 16 0.608737 0.058450 0.791216 
-108.305016 220.142914 41.461723 142 137 99 -0.475004 0.356653 0.804468 
-90.233070 227.551224 38.736183 69 70 56 -0.327416 -0.232220 0.915900 
-111.478615 115.865524 5.628752 114 108 94 -0.719668 0.677246 0.153024 
-111.077385 107.921570 12.072367 54 56 42 -0.311936 0.052631 0.948644 
-22.785816 104.097603 30.448841 6 2 1 -0.121869 -0.927022 0.354651 
-20.348930 103.838669 30.534512 3 2 0 -0.116547 -0.900079 0.419850 
3.449015 103.795578 12.458652 4 4 4 -0.090058 -0.983436 -0.157302 
4.971111 103.560883 15.017264 4 2 3 -0.014267 -0.993236 -0.115237 
22.694349 90.774353 3.712211 30 17 8 -0.983552 0.180184 -0.012624 
-55.832123 122.650429 -36.520111 141 129 103 -0.687808 0.290194 -0.665362 
-53.439880 125.394554 -37.857536 170 156 127 -0.666600 0.268867 -0.695237 
-40.570480 159.962753 -43.007301 43 31 19 -0.364256 -0.486210 -0.794303 
-4.070724 210.379440 -87.513649 121 108 74 -0.388618 -0.100244 -0.915930 
-15.108083 201.770264 -79.843704 58 52 38 -0.485223 -0.068126 -0.871733 
-2.009659 104.559334 13.226484 4 4 4 -0.285780 -0.826108 -0.485670 
22.459404 101.591751 -11.161495 2 2 2 -0.266525 -0.959234 0.093992 
-91.326050 120.254883 -4.669779 65 53 41 -0.570454 -0.594152 -0.567068 
-77.293854 119.171249 -5.781552 38 37 32 0.206442 -0.545923 -0.812004 
-26.309786 291.008728 -34.132126 101 71 47 -0.337875 0.834474 -0.435309 
-26.934664 298.299164 -10.170370 66 57 28 -0.184216 0.982869 0.005721 
-52.336193 206.969223 58.107971 94 88 64 -0.455769 -0.268551 0.848620 
-56.859642 230.599747 61.974243 107 108 64 -0.601122 0.055423 0.797233 
15.431691 293.512665 -38.695160 89 76 57 -0.014226 0.922101 -0.386688 
12.528950 292.851929 -39.665474 66 50 25 -0.124225 0.911447 -0.392215 
31.461582 280.706055 -54.248112 126 117 110 0.282723 0.784991 -0.551231 
30.524685 280.973328 -54.887833 60 48 32 0.384499 0.737911 -0.554660 
37.071747 274.034149 -78.575653 68 69 51 -0.544570 0.813041 0.205930 
39.193069 275.474762 -78.748390 66 68 46 -0.540063 0.816941 0.202334 
-61.916618 102.842728 69.032501 79 80 62 0.304114 0.934561 -0.184690 
-60.606571 102.869408 70.583664 70 71 55 0.299706 0.930072 -0.212467 
-31.291626 92.730957 95.918579 200 186 139 0.054221 0.276148 0.959584 
-32.078735 93.747757 95.736160 139 121 83 0.038885 0.287246 0.957067 
-109.431389 80.601341 -15.226854 191 171 134 -0.712107 -0.379900 0.590407 
-13.701962 104.659370 34.989601 39 39 29 -0.247939 -0.949754 -0.191035 
-12.609389 98.609398 38.182587 4 2 3 -0.123051 -0.242216 -0.962388 
-101.248543 122.607330 21.625109 114 103 73 -0.746320 0.665410 0.015345 
-84.962990 208.145508 -31.054071 60 54 28 0.049117 -0.388953 -0.919947 
-67.538391 62.604095 -41.010605 49 41 28 0.851643 0.148048 0.502777 
-123.035294 212.580643 -7.783064 105 98 90 -0.752629 -0.254032 -0.607468 
-125.176933 195.208069 -1.431760 174 162 140 -0.986032 -0.017138 -0.165672 
-123.471619 187.853714 19.084612 54 61 45 -0.793152 -0.548139 -0.265431 
76.269241 287.448914 0.507958 58 83 62 -0.388209 0.901972 0.189053 
73.021111 285.391022 4.346342 69 87 61 -0.348672 0.917933 0.189279 
73.774292 285.840210 3.615112 55 73 51 -0.357998 0.914250 0.189696 
75.737740 287.025055 1.629988 58 81 65 -0.381294 0.905034 0.188489 
62.584885 287.156647 -10.416019 54 52 40 0.445503 0.894995 0.022608 
-29.666025 131.278870 36.351959 72 82 55 -0.200526 0.246906 0.948065 
-30.480089 132.645508 35.833138 125 123 82 -0.219118 0.246680 0.944000 
-30.671448 131.161789 36.134117 116 120 87 -0.213013 0.251493 0.944128 
-29.605909 131.214096 36.381805 87 97 72 -0.200009 0.246269 0.948340 
-18.301687 139.300385 39.743042 56 41 22 -0.777218 -0.082498 0.623800 
34.121372 37.218094 -21.509331 54 60 48 0.186642 0.964536 0.186642 
35.195354 36.445496 -20.473255 49 59 51 0.060132 0.973163 0.222122 
-82.995979 106.409233 -22.911514 156 144 118 -0.153800 0.889740 -0.429777 
-82.210976 106.964966 -21.549355 102 100 77 -0.077867 0.905722 -0.416659 
-46.536705 98.699409 -49.131580 85 68 58 -0.441395 0.183304 -0.878391 
-52.277710 110.922112 -43.344631 70 59 31 -0.509129 0.211250 -0.834363 
-50.465542 114.577652 -43.525688 100 72 50 -0.517180 0.215110 -0.828404 
-53.997021 109.032524 -42.783123 154 148 114 -0.518752 0.224946 -0.824800 
21.827263 90.004723 -29.479195 93 104 87 0.856616 -0.299892 -0.419849 
23.170809 89.389053 -26.349472 117 128 111 0.871331 -0.306721 -0.383020 
22.038446 89.561478 -28.744076 76 90 77 0.860718 -0.302249 -0.409647 
