ply
format ascii 1.0
comment Created by CloudCompare v2.13.alpha
comment Created 2023-10-15T21:03:30
obj_info Generated by CloudCompare!
element vertex 696
property float x
property float y
property float z
property uchar red
property uchar green
property uchar blue
property float nx
property float ny
property float nz
end_header
0.030351 0.225493 -0.097784 214 71 41 -0.997038 0.022393 0.073578 
0.025254 0.229193 -0.068953 52 27 22 -0.140722 0.474392 -0.868993 
0.030930 0.232419 -0.084311 43 19 17 -0.994813 0.087420 0.052009 
0.023900 0.234941 -0.064839 61 33 21 -0.244582 0.651693 -0.717967 
0.029187 0.244690 -0.058151 79 44 40 -0.638691 0.618575 -0.457645 
0.031744 0.246480 -0.061751 66 36 34 -0.951916 0.279352 -0.125775 
0.030227 0.243056 -0.062176 77 43 41 -0.819098 0.440563 -0.367401 
0.029964 0.230864 -0.098751 221 81 45 -0.999075 0.015434 0.040128 
0.022988 0.235946 -0.063453 65 36 20 -0.258429 0.638937 -0.724551 
0.025766 0.238996 -0.061633 57 32 27 -0.312229 0.648726 -0.694023 
0.015394 0.234002 -0.062923 76 45 42 -0.321013 0.582341 -0.746880 
0.032013 0.247767 -0.058643 62 27 25 -0.897732 0.379303 -0.224067 
0.031739 0.242019 -0.091804 251 112 47 -0.985154 0.171578 -0.005681 
0.031774 0.241734 -0.089262 228 92 52 -0.989309 0.144859 0.016844 
0.032339 0.248758 -0.086200 137 99 86 -0.993777 0.111381 -0.001081 
0.031988 0.244197 -0.090287 229 102 33 -0.993586 0.111132 -0.020906 
0.020298 0.235746 -0.063028 79 42 24 -0.236892 0.641647 -0.729501 
0.032168 0.243855 -0.092860 234 104 29 -0.989041 0.147635 0.001110 
0.031936 0.244174 -0.099315 234 136 47 -0.984533 0.172786 0.028991 
0.033129 0.250996 -0.098118 54 34 23 -0.901958 0.371566 -0.220025 
0.032757 0.250929 -0.095884 255 222 188 -0.958649 0.274447 -0.075313 
0.032480 0.247541 -0.098880 238 210 196 -0.980561 0.187971 -0.056272 
0.035535 0.248528 -0.108640 85 78 72 0.073944 0.987098 0.142020 
0.031892 0.242541 -0.093406 234 100 36 -0.983846 0.178985 0.003420 
0.033736 0.253444 -0.094681 30 23 13 -0.806928 0.517504 -0.284706 
0.031949 0.240410 -0.074355 184 95 81 -0.995276 0.069747 -0.067533 
0.030762 0.229029 -0.090931 216 70 45 -0.999731 0.023017 -0.003002 
0.026833 0.233668 -0.066828 64 35 31 -0.424641 0.503339 -0.752549 
0.018848 0.237750 -0.060558 86 43 27 -0.237313 0.674219 -0.699365 
0.031104 0.239056 -0.092933 221 88 47 -0.983929 0.176899 0.024280 
0.026873 0.241205 -0.060056 64 35 31 -0.406789 0.655843 -0.635919 
0.023356 0.233463 -0.065996 63 35 23 -0.251670 0.564303 -0.786273 
0.031199 0.236733 -0.112954 207 158 55 -0.996929 0.050875 0.059534 
0.030360 0.212744 -0.090885 218 51 43 -0.997913 0.017876 0.062041 
0.030554 0.225025 -0.113592 207 117 38 -0.999735 0.021142 -0.009061 
0.030146 0.211983 -0.095776 197 84 78 -0.999471 -0.027508 0.017320 
0.029988 0.219956 -0.116820 209 118 48 -0.998050 0.059820 0.017841 
0.030205 0.228419 -0.096557 220 69 50 -0.998165 0.011473 0.059452 
0.029797 0.218612 -0.093380 218 55 46 -0.997501 -0.007342 0.070276 
0.030487 0.212777 -0.090164 218 51 43 -0.998016 0.024290 0.058086 
0.030161 0.202244 -0.102738 229 76 62 -0.998419 0.047244 0.030446 
0.033724 0.313973 -0.112064 110 97 91 -0.995480 -0.001067 0.094960 
0.038601 0.340004 -0.075461 31 28 23 0.300260 0.819034 -0.488905 
0.033502 0.333480 -0.081650 236 226 216 -0.834928 0.284528 -0.471104 
0.033713 0.330399 -0.084816 207 197 185 -0.999003 0.007172 0.044059 
0.033011 0.331813 -0.081752 245 233 219 -0.899880 0.186332 -0.394330 
0.033037 0.326519 -0.088418 221 200 155 -0.994718 0.085579 -0.056682 
0.035323 0.317403 -0.103500 79 74 68 -0.093619 0.990517 0.100554 
0.039074 0.331143 -0.085478 11 9 10 0.383372 0.607142 -0.695992 
0.034130 0.315945 -0.097277 150 137 105 -0.924178 0.375823 -0.068210 
0.033468 0.306323 -0.114899 226 191 49 -0.988298 0.136197 -0.068680 
0.033058 0.301770 -0.117574 218 179 42 -0.981287 0.065898 -0.180921 
0.033913 0.336747 -0.081483 29 29 27 -0.113698 0.639367 -0.760449 
0.032972 0.311541 -0.083945 223 185 62 -0.999668 0.019205 0.017183 
0.034062 0.318774 -0.092336 121 108 89 -0.988357 0.083045 -0.127492 
0.033064 0.335802 -0.080848 167 148 118 -0.992219 0.083351 -0.092485 
0.032622 0.318284 -0.083562 219 180 61 -0.987580 0.028609 -0.154488 
0.032858 0.317197 -0.084743 230 191 70 -0.990422 0.063121 -0.122799 
0.032920 0.338834 -0.077910 30 26 14 -0.967988 0.092129 -0.233478 
0.036436 0.328196 -0.088021 6 5 3 0.242426 0.523456 -0.816838 
0.035873 0.328569 -0.088091 4 2 3 0.243256 0.528346 -0.813436 
0.033292 0.314197 -0.097587 253 255 237 -0.951359 0.306199 -0.034022 
0.036365 0.331310 -0.086352 8 8 8 0.158453 0.605139 -0.780192 
0.033443 0.321475 -0.085212 226 189 72 -0.995265 -0.014048 -0.096177 
0.033796 0.321307 -0.091013 78 64 35 -0.984332 -0.072605 -0.160683 
0.032773 0.339886 -0.075252 72 66 44 -0.880057 0.446574 -0.161465 
0.033210 0.324015 -0.085221 232 199 86 -0.997130 -0.071605 -0.024581 
0.034152 0.325982 -0.090410 10 7 2 0.206260 0.551555 -0.808235 
0.033877 0.309769 -0.115343 239 211 112 -0.995106 -0.065307 0.074162 
0.033708 0.307784 -0.114531 233 199 76 -0.997266 0.072971 0.011633 
0.035014 0.330242 -0.087521 2 0 3 0.088387 0.607114 -0.789683 
0.032479 0.302403 -0.115516 214 177 37 -0.990128 0.086853 -0.110014 
0.032922 0.305366 -0.113576 215 177 44 -0.987191 0.146034 -0.064255 
0.033191 0.328093 -0.083476 253 245 222 -0.986881 0.119946 -0.108070 
0.033213 0.327586 -0.086341 249 239 214 -0.992660 0.120089 -0.014323 
0.032556 0.315557 -0.081655 225 186 65 -0.998779 -0.040618 -0.028120 
0.034255 0.322129 -0.092158 25 19 7 0.024017 0.158971 -0.986991 
0.033250 0.305914 -0.112441 216 177 48 -0.989514 0.140058 -0.035299 
0.040132 0.314123 -0.112439 60 52 49 0.462887 0.833820 -0.300799 
0.034858 0.340363 -0.076229 48 41 35 -0.055639 0.899724 -0.432899 
0.032542 0.333858 -0.079756 225 218 199 -0.978891 0.079041 -0.188482 
0.039941 0.334919 -0.080642 6 6 6 0.311283 0.633855 -0.708047 
0.035955 0.315463 -0.109199 43 38 34 0.032399 0.931783 -0.361568 
0.033997 0.341689 -0.073143 39 32 24 -0.383312 0.834452 -0.395931 
0.035217 0.341016 -0.074681 37 33 22 -0.036054 0.904019 -0.425970 
0.040901 0.311787 -0.115367 59 54 50 0.657280 0.607106 -0.446549 
0.039696 0.340974 -0.072909 50 47 40 0.632033 0.690827 -0.351130 
0.032724 0.316821 -0.084269 231 193 70 -0.992406 0.041584 -0.115762 
0.040977 0.338333 -0.076173 108 95 61 0.368627 0.722509 -0.584888 
0.032800 0.321221 -0.083448 225 188 73 -0.987264 0.019314 -0.157917 
0.038975 0.340679 -0.074080 35 32 25 0.390043 0.800953 -0.454248 
0.032145 0.336634 -0.076016 224 216 195 -0.982570 0.122669 -0.139673 
0.032537 0.302073 -0.113001 215 178 46 -0.997804 0.065824 -0.007314 
0.032653 0.312990 -0.092337 223 185 58 -0.989170 0.139012 -0.047103 
0.034011 0.317928 -0.093059 251 244 218 -0.972277 0.171578 -0.158869 
0.032914 0.309211 -0.099522 225 188 58 -0.998805 0.007200 -0.048346 
0.032662 0.314992 -0.083403 223 185 62 -0.998840 -0.040536 -0.025984 
0.033095 0.313754 -0.094713 249 211 100 -0.959777 0.274402 -0.059433 
0.034633 0.332967 -0.085128 38 34 33 -0.136733 0.680660 -0.719726 
0.032933 0.310308 -0.101104 206 171 43 -0.999668 0.011119 -0.023248 
0.040101 0.330259 -0.085589 22 18 15 0.684372 0.380940 -0.621707 
0.032193 0.301333 -0.108285 215 179 41 -0.998611 0.013509 -0.050918 
0.032987 0.306038 -0.106747 213 179 46 -0.998730 -0.032352 -0.038613 
0.040567 0.336760 -0.078313 17 17 17 0.521428 0.636176 -0.568677 
0.032239 0.328185 -0.080208 221 182 61 -0.966240 0.188566 -0.175562 
0.032865 0.305794 -0.103486 207 173 40 -0.999916 0.010923 0.006951 
0.032669 0.310027 -0.106130 213 178 48 -0.996493 0.066288 -0.051074 
0.033112 0.298367 -0.110253 213 176 35 -0.994404 -0.105188 0.009760 
0.033900 0.311533 -0.110259 231 193 86 -0.986557 0.142962 -0.079161 
0.041626 0.328706 -0.081045 102 91 35 0.985088 0.060023 -0.161239 
0.039118 0.325375 -0.089212 6 5 1 0.589880 0.357849 -0.723869 
0.033647 0.315773 -0.104288 210 198 176 -0.933399 0.357609 0.029693 
0.033598 0.314468 -0.106751 224 216 195 -0.972132 0.203000 -0.117261 
0.041836 0.335173 -0.079804 34 30 29 0.690967 0.635428 -0.344667 
0.036564 0.336932 -0.080688 15 14 10 0.233547 0.625405 -0.744530 
0.033155 0.307782 -0.110846 223 186 56 -0.988811 0.111168 -0.099466 
0.038260 0.336821 -0.080144 13 13 11 0.348380 0.639515 -0.685311 
0.032798 0.307997 -0.105918 214 185 49 -0.999538 -0.023435 -0.019359 
0.034032 0.321905 -0.092117 39 31 18 -0.109345 0.077117 -0.991008 
0.035229 0.313617 -0.115509 35 34 32 0.001282 0.919277 -0.393609 
0.035100 0.312433 -0.117558 37 33 34 0.268623 0.646920 -0.713678 
0.035073 0.316410 -0.099327 48 43 37 -0.203311 0.978507 -0.034480 
0.042085 0.333488 -0.082233 30 24 26 0.997420 -0.056781 -0.043925 
0.041426 0.330714 -0.083303 24 22 23 0.942592 0.091219 -0.321248 
0.037128 0.338860 -0.078276 22 21 16 0.250964 0.802774 -0.540898 
0.032872 0.308223 -0.108286 217 183 49 -0.995155 0.031749 -0.093056 
0.035290 0.340475 -0.075932 40 33 23 -0.014544 0.897744 -0.440278 
0.035349 0.342073 -0.072529 39 37 24 -0.158224 0.881119 -0.445640 
0.034621 0.314746 -0.111764 39 30 33 -0.087937 0.946312 -0.311062 
0.033688 0.312704 -0.112352 253 254 246 -0.993092 -0.073437 0.091514 
0.016871 -0.076888 -0.060651 90 62 51 -0.985927 -0.019467 -0.166039 
0.017777 -0.062701 -0.082289 142 101 55 -0.983987 -0.114698 -0.136430 
0.024003 -0.083432 -0.106483 181 170 152 -0.468912 0.881444 -0.056379 
0.026685 -0.083455 -0.108793 38 38 30 -0.050875 0.996929 0.059534 
0.023765 -0.064865 -0.091449 17 12 9 -0.362561 -0.225691 -0.904220 
0.018581 -0.086351 -0.069846 205 162 60 -0.964202 -0.264944 0.010888 
0.019179 -0.063359 -0.088321 226 212 201 -0.873409 -0.161850 -0.459305 
0.022690 -0.072403 -0.090164 10 9 7 -0.355739 0.152061 -0.922132 
0.017963 -0.071176 -0.079359 38 9 11 -0.976785 -0.072128 -0.201714 
0.017789 -0.065204 -0.079963 178 129 60 -0.985710 -0.072010 -0.152283 
0.027248 -0.082997 -0.105625 0 0 2 -0.098865 0.980106 -0.172098 
0.027649 -0.082620 -0.104899 0 0 2 -0.068037 0.971080 -0.228853 
0.020571 -0.075709 -0.089206 214 198 146 -0.969099 0.015611 -0.246178 
0.020552 -0.082388 -0.092024 205 160 57 -0.980949 0.068606 -0.181746 
0.016882 -0.065759 -0.074569 144 104 78 -0.981778 -0.034098 -0.186949 
0.016071 -0.064808 -0.071874 205 107 44 -0.981797 -0.065772 -0.178182 
0.016820 -0.080139 -0.061846 188 138 65 -0.987213 -0.102859 -0.121776 
0.016310 -0.071185 -0.067485 182 112 42 -0.994231 -0.031930 -0.102396 
0.016012 -0.079247 -0.055765 209 136 55 -0.980227 -0.165207 -0.108914 
0.016457 -0.080299 -0.056426 209 136 55 -0.978801 -0.176061 -0.104652 
0.019457 -0.078972 -0.085523 212 169 67 -0.980098 0.061331 -0.188804 
0.019259 -0.079532 -0.080881 191 153 70 -0.990686 0.032759 -0.132167 
0.019268 -0.079019 -0.080501 53 34 27 -0.991134 0.014429 -0.132077 
0.019096 -0.077880 -0.080484 53 34 27 -0.988360 -0.010120 -0.151796 
0.019041 -0.086680 -0.064792 199 152 60 -0.989903 -0.127915 -0.061077 
0.016848 -0.069667 -0.075211 199 152 70 -0.981605 -0.051039 -0.183977 
0.015260 -0.072550 -0.055360 200 83 40 -0.984020 -0.080109 -0.159021 
0.014787 -0.072382 -0.053816 198 78 41 -0.983643 -0.080078 -0.161351 
0.016244 -0.068748 -0.069750 184 109 41 -0.990534 -0.072647 -0.116466 
0.016914 -0.078300 -0.068247 33 14 7 -0.981807 -0.183571 -0.048557 
0.015799 -0.076848 -0.055876 213 111 49 -0.982524 -0.142095 -0.120235 
0.018500 -0.085411 -0.062112 191 133 51 -0.968327 -0.231035 -0.094686 
0.017815 -0.083737 -0.065517 194 147 67 -0.959420 -0.278945 -0.041279 
0.018504 -0.085647 -0.067967 210 157 65 -0.953883 -0.296904 0.044220 
0.018128 -0.082773 -0.081385 200 161 66 -0.996314 0.022570 -0.082757 
0.017207 -0.082698 -0.060078 217 160 70 -0.969211 -0.226191 -0.097300 
0.017059 -0.079482 -0.062399 96 70 53 -0.988944 -0.117926 -0.089904 
0.016094 -0.069862 -0.065602 187 110 54 -0.993650 -0.090944 -0.066243 
0.019132 -0.081857 -0.085216 196 160 64 -0.975089 0.082593 -0.205866 
0.016627 -0.080804 -0.061217 212 152 63 -0.984012 -0.145735 -0.102376 
0.016722 -0.074414 -0.070140 190 141 74 -0.985543 0.047933 -0.162504 
0.018568 -0.078724 -0.078006 33 12 7 -0.978968 -0.099494 -0.178106 
0.015798 -0.071352 -0.063320 53 34 30 -0.990466 -0.135726 -0.023556 
0.016996 -0.074571 -0.075693 125 92 61 -0.977662 -0.079534 -0.194554 
0.018461 -0.079390 -0.076498 37 17 10 -0.980579 -0.138680 -0.138680 
0.017164 -0.077942 -0.065641 43 24 18 -0.980637 -0.195664 0.008104 
0.017170 -0.073556 -0.072031 210 153 72 -0.987206 0.019357 -0.158272 
0.016374 -0.075887 -0.072192 122 94 70 -0.979799 -0.156521 -0.124478 
0.017354 -0.082242 -0.065201 178 134 71 -0.973560 -0.221097 -0.057412 
0.018259 -0.083811 -0.071574 171 130 74 -0.989792 -0.129903 -0.058629 
0.017720 -0.080422 -0.067189 44 19 12 -0.986951 -0.152286 -0.052312 
0.016785 -0.076895 -0.065588 36 11 7 -0.977387 -0.209694 0.027248 
0.016093 -0.075124 -0.066732 57 36 31 -0.987641 -0.156536 -0.007883 
0.017169 -0.078322 -0.071485 34 10 6 -0.943159 -0.318796 -0.093919 
0.018142 -0.081465 -0.070469 36 15 12 -0.992651 -0.094160 -0.076009 
0.017957 -0.085432 -0.059376 199 148 67 -0.988304 -0.059229 -0.140523 
0.018493 -0.082601 -0.076966 167 133 70 -0.998762 -0.021825 -0.044690 
0.018790 -0.081317 -0.077702 154 124 70 -0.997208 -0.003152 -0.074607 
0.018150 -0.084248 -0.076162 203 165 64 -0.998817 -0.048346 -0.005143 
0.016405 -0.079721 -0.059878 218 151 62 -0.984110 -0.133704 -0.116840 
0.018195 -0.084178 -0.064571 197 143 55 -0.953793 -0.295917 -0.052071 
0.018918 -0.085353 -0.064002 188 138 43 -0.944481 -0.325107 -0.047545 
0.015845 -0.071091 -0.062014 35 11 11 -0.987189 -0.155508 -0.035709 
0.025291 -0.076440 -0.093543 23 18 14 -0.223312 0.660567 -0.716786 
0.026159 -0.051641 -0.098414 28 19 20 -0.272811 -0.553507 -0.786895 
0.026685 -0.051260 -0.098808 27 18 21 -0.254861 -0.558192 -0.789600 
0.030362 -0.043221 -0.106873 172 138 77 0.380427 -0.666982 -0.640632 
0.036910 -0.043991 -0.103830 175 140 82 0.292325 -0.240990 -0.925457 
0.028920 -0.042401 -0.108269 169 140 98 0.453424 -0.719167 -0.526503 
0.037071 -0.043560 -0.104257 175 140 82 0.344530 -0.220557 -0.912499 
0.032738 -0.042292 -0.107117 172 137 71 0.499732 -0.509761 -0.700294 
0.023499 -0.075210 -0.091992 17 17 9 -0.303628 0.532542 -0.790069 
0.037148 -0.066494 -0.097416 56 43 26 -0.652022 -0.113845 -0.749604 
0.026525 -0.072030 -0.091038 37 30 24 -0.302290 0.145045 -0.942116 
0.022763 -0.079305 -0.095037 229 229 205 -0.649121 0.544587 -0.531099 
0.031193 -0.060389 -0.095145 33 24 19 -0.329418 -0.326410 -0.885969 
0.027447 -0.055817 -0.096176 31 21 20 -0.283791 -0.469884 -0.835866 
0.023291 -0.059537 -0.092883 16 8 6 -0.344024 -0.353198 -0.869999 
0.016650 -0.075313 -0.072882 207 155 82 -0.951125 0.303387 -0.057605 
0.021680 -0.084786 -0.101172 204 172 115 -0.967190 0.215074 -0.135226 
0.022567 -0.083237 -0.100683 231 214 188 -0.756017 0.594353 -0.274195 
0.028387 -0.083100 -0.107100 5 5 5 0.109325 0.990829 -0.079404 
0.030556 -0.082978 -0.105186 29 25 24 0.546234 0.821596 -0.163122 
0.026952 -0.082052 -0.102365 0 1 3 -0.081455 0.930725 -0.356533 
0.019159 -0.074232 -0.083831 196 151 58 -0.973292 -0.059989 -0.221592 
0.035154 -0.072080 -0.094850 56 45 39 -0.334969 -0.236363 -0.912101 
0.019597 -0.069576 -0.086891 209 176 122 -0.909109 -0.100706 -0.404202 
0.019384 -0.067285 -0.087547 218 209 192 -0.886592 -0.108534 -0.449639 
0.030679 -0.071823 -0.092897 51 42 35 -0.399425 0.032956 -0.916173 
0.031713 -0.070562 -0.093456 33 26 20 -0.424983 -0.033306 -0.904588 
0.029302 -0.070042 -0.092220 36 27 18 -0.365264 -0.067740 -0.928436 
0.038667 -0.069042 -0.098934 53 42 22 -0.544640 -0.435381 -0.716806 
0.039146 -0.063465 -0.099167 51 38 22 -0.777540 0.067550 -0.625194 
0.026986 -0.062649 -0.092935 17 7 8 -0.275677 -0.304849 -0.911630 
0.035817 -0.054362 -0.099149 47 36 30 -0.272964 -0.313836 -0.909394 
0.034915 -0.054229 -0.098825 47 36 30 -0.239894 -0.341667 -0.908688 
0.035003 -0.061323 -0.096330 48 38 29 -0.462698 -0.211134 -0.861007 
0.033071 -0.058499 -0.096572 41 30 26 -0.343290 -0.343290 -0.874245 
0.036537 -0.060085 -0.097430 47 37 27 -0.493041 -0.203549 -0.845860 
0.038331 -0.047983 -0.101392 105 82 50 0.058213 -0.177014 -0.982485 
0.037323 -0.051083 -0.100444 65 51 40 -0.141548 -0.255315 -0.956440 
0.033979 -0.068809 -0.094870 30 21 14 -0.487952 -0.189510 -0.852050 
0.032664 -0.070171 -0.094030 45 36 29 -0.451708 -0.084782 -0.888128 
0.030546 -0.053695 -0.098364 36 27 22 -0.216336 -0.482597 -0.848704 
0.031035 -0.053997 -0.098275 36 27 22 -0.224572 -0.462709 -0.857594 
0.033271 -0.055538 -0.097775 40 31 26 -0.251265 -0.379127 -0.890578 
0.033520 -0.049662 -0.101016 84 72 74 -0.014595 -0.455109 -0.890316 
0.017399 -0.069284 -0.077317 54 26 25 -0.978233 -0.039320 -0.203749 
0.023203 -0.078261 -0.094268 104 99 67 -0.546230 0.569905 -0.613874 
0.037429 -0.062257 -0.097840 48 35 26 -0.601802 -0.116240 -0.790141 
0.021286 -0.070701 -0.089323 74 60 49 -0.625863 0.004127 -0.779922 
0.019939 -0.074813 -0.087061 219 175 76 -0.971033 -0.017960 -0.238268 
0.022703 -0.080426 -0.096399 79 68 50 -0.624226 0.614131 -0.482892 
0.021332 -0.082501 -0.095262 207 176 121 -0.936557 0.242189 -0.253388 
0.019029 -0.087582 -0.062718 136 120 104 -0.989715 -0.084899 -0.115137 
0.038763 -0.060781 -0.099036 51 39 27 -0.663128 -0.058722 -0.746199 
0.020438 -0.083981 -0.090503 206 167 64 -0.984919 -0.001131 -0.173011 
0.041665 -0.046037 -0.101931 195 163 122 0.126953 0.078035 -0.988834 
0.039238 -0.050456 -0.101079 58 44 35 -0.162056 -0.127418 -0.978521 
0.028555 -0.066883 -0.092200 29 18 14 -0.341242 -0.160175 -0.926228 
0.039369 -0.053518 -0.100997 51 38 30 -0.390423 -0.132940 -0.910987 
0.023137 -0.067244 -0.090795 21 13 10 -0.423081 -0.150588 -0.893490 
0.021468 -0.067705 -0.089983 72 52 28 -0.582690 -0.141574 -0.800268 
0.016922 -0.074853 -0.073780 164 123 79 -0.888405 0.454501 -0.064536 
0.017981 -0.065525 -0.081854 194 141 61 -0.985612 -0.098919 -0.137056 
0.024909 -0.080322 -0.097776 8 4 3 -0.303355 0.786183 -0.538416 
0.038399 -0.045357 -0.102381 166 134 77 0.196773 -0.153045 -0.968431 
0.037622 -0.044706 -0.102806 174 143 86 0.206958 -0.201618 -0.957350 
0.019221 -0.056816 -0.090660 69 58 52 -0.852522 -0.241624 -0.463492 
0.023277 -0.083093 -0.102577 204 172 115 -0.579901 0.776848 -0.245403 
0.016887 -0.070658 -0.074483 199 152 70 -0.983373 -0.082646 -0.161700 
0.035456 -0.062832 -0.096344 45 35 25 -0.522105 -0.155300 -0.838623 
0.037259 -0.060893 -0.097803 47 37 27 -0.548329 -0.162855 -0.820252 
0.035241 -0.068783 -0.095712 32 23 16 -0.538382 -0.216273 -0.814476 
0.026898 -0.074841 -0.092149 57 53 44 -0.246783 0.485902 -0.838449 
0.020685 -0.073167 -0.089266 238 234 223 -0.936462 -0.016563 -0.350377 
0.027363 -0.043986 -0.106037 73 65 76 0.091563 -0.783368 -0.614777 
0.028470 -0.044597 -0.105446 73 65 76 0.120174 -0.749233 -0.651313 
0.020422 -0.081858 -0.091097 205 161 62 -0.981909 0.053429 -0.181659 
0.045774 -0.064953 -0.104152 72 58 29 -0.240638 -0.315568 -0.917884 
0.044720 -0.065451 -0.103806 70 57 23 -0.243918 -0.343238 -0.907024 
0.045210 -0.064744 -0.104052 72 58 29 -0.254142 -0.297217 -0.920366 
0.045034 -0.054937 -0.103692 45 39 15 -0.332875 0.109161 -0.936631 
0.039978 -0.063682 -0.101243 60 45 26 -0.802900 0.186686 -0.566128 
0.043010 -0.066750 -0.103114 81 67 30 -0.254624 -0.417341 -0.872349 
0.042632 -0.065173 -0.103110 74 60 31 -0.366227 -0.273549 -0.889409 
0.041642 -0.065340 -0.102576 80 66 29 -0.436445 -0.257001 -0.862245 
0.042285 -0.055813 -0.102417 47 41 19 -0.481959 0.042325 -0.875171 
0.042705 -0.054708 -0.102578 47 43 18 -0.425928 0.038721 -0.903928 
0.041280 -0.053368 -0.101883 51 39 25 -0.428406 -0.025200 -0.903235 
0.041216 -0.052049 -0.101819 47 38 23 -0.356245 -0.008874 -0.934350 
0.044146 -0.052171 -0.103172 47 40 14 -0.233995 0.094863 -0.967599 
0.041619 -0.067403 -0.102022 70 56 19 -0.381680 -0.410187 -0.828292 
0.040394 -0.056270 -0.101155 50 38 24 -0.520975 -0.040075 -0.852630 
0.016452 -0.070035 -0.072950 206 149 72 -0.986112 -0.084050 -0.143241 
0.029428 -0.075035 -0.093254 44 33 31 -0.210408 0.410517 -0.887245 
0.022587 -0.070692 -0.090071 22 17 14 -0.439235 0.014509 -0.898255 
0.018610 -0.066857 -0.085434 215 163 51 -0.966856 -0.113673 -0.228622 
0.018746 -0.068623 -0.084553 211 163 55 -0.974629 -0.103578 -0.198420 
0.018963 -0.070468 -0.084156 214 162 60 -0.968327 -0.094686 -0.231035 
0.026467 -0.068651 -0.091144 30 19 15 -0.331740 -0.120510 -0.935642 
0.031660 -0.048961 -0.101422 19 15 16 -0.017797 -0.543506 -0.839217 
0.027423 -0.045448 -0.103979 0 0 4 -0.083124 -0.724780 -0.683948 
0.025300 -0.050380 -0.099060 25 16 17 -0.288368 -0.578328 -0.763139 
0.023981 -0.047085 -0.101454 15 7 18 -0.255217 -0.657856 -0.708583 
0.028446 -0.048134 -0.101721 2 0 11 -0.095118 -0.636562 -0.765338 
0.029536 -0.047859 -0.102161 2 0 11 -0.035267 -0.641865 -0.766006 
0.020433 -0.060508 -0.091149 18 8 9 -0.671240 -0.261831 -0.693456 
0.020328 -0.056721 -0.092761 11 9 10 -0.654127 -0.362311 -0.663964 
0.022480 -0.052238 -0.096738 24 16 14 -0.427421 -0.536339 -0.727771 
0.022839 -0.051871 -0.097237 24 16 14 -0.387983 -0.551689 -0.738314 
0.025292 -0.057130 -0.094844 26 17 12 -0.306649 -0.443629 -0.842116 
0.029706 -0.057576 -0.095841 33 26 20 -0.282043 -0.416203 -0.864423 
0.029299 -0.036326 -0.109297 176 139 69 0.659628 0.083000 -0.746996 
0.031791 -0.038933 -0.107967 178 140 69 0.539458 0.078285 -0.838366 
0.036701 -0.040178 -0.105472 168 132 74 0.461908 0.136702 -0.876330 
0.030689 -0.033750 -0.108686 173 134 67 0.751306 0.149057 -0.642901 
0.030693 -0.041364 -0.108437 173 136 68 0.429593 0.019827 -0.902805 
0.028242 -0.040944 -0.109676 168 130 65 0.457226 -0.011928 -0.889271 
0.038619 -0.039497 -0.104534 189 151 89 0.486278 0.179938 -0.855076 
0.029618 -0.038200 -0.109077 177 138 71 0.578652 0.058007 -0.813509 
0.030535 -0.033858 -0.108759 173 134 67 0.747407 0.145872 -0.648154 
0.020032 -0.061994 -0.090015 101 89 63 -0.773158 -0.215369 -0.596525 
0.019958 -0.059294 -0.090954 18 8 9 -0.740382 -0.251004 -0.623563 
0.024615 -0.056983 -0.094658 25 13 13 -0.324057 -0.439904 -0.837539 
0.031575 0.152752 -0.155002 70 61 64 0.939614 0.309568 -0.145920 
0.032585 0.150286 -0.153566 94 89 86 0.963799 0.197468 -0.179159 
0.022694 0.137297 -0.155898 110 59 12 -0.522217 0.339040 0.782522 
0.027071 0.127274 -0.142956 146 88 22 -0.688560 0.458484 0.561852 
0.035917 0.134407 -0.130940 110 86 62 -0.622677 0.629390 0.464910 
0.021265 0.129694 -0.155226 118 82 56 0.495058 -0.435849 -0.751634 
0.026240 0.131536 -0.149183 121 69 9 -0.737979 0.470523 0.483731 
0.025877 0.127352 -0.144140 139 85 23 -0.565103 0.541486 0.622456 
0.039153 0.128126 -0.125301 68 58 57 0.906166 0.351668 0.234932 
0.028515 0.152496 -0.150945 182 149 118 -0.837345 0.136380 0.529390 
0.025649 0.128297 -0.145366 134 81 15 -0.532007 0.629964 0.565786 
0.028956 0.148579 -0.150790 141 100 70 -0.912587 -0.235739 0.334085 
0.030291 0.144783 -0.148800 138 93 51 -0.914695 -0.035637 0.402571 
0.029595 0.145352 -0.150081 124 81 39 -0.866115 0.039806 0.498257 
0.022803 0.129474 -0.149743 80 33 7 -0.661490 0.520103 0.540301 
0.027217 0.134144 -0.147969 143 89 29 -0.862276 0.217444 0.457381 
0.026402 0.139127 -0.151466 150 110 75 -0.860694 0.071608 0.504061 
0.022079 0.128642 -0.150551 124 74 25 -0.765443 0.322545 0.556832 
0.030115 0.139686 -0.148382 190 157 124 -0.696932 0.368964 0.614940 
0.023519 0.133927 -0.153465 139 88 31 -0.533884 0.464030 0.706855 
0.024631 0.136933 -0.154472 139 93 41 -0.749299 0.229952 0.621026 
0.028656 0.141699 -0.150592 166 130 94 -0.529509 0.339594 0.777365 
0.018789 0.127511 -0.153012 119 86 53 -0.592336 0.448840 0.669089 
0.018370 0.126944 -0.155151 116 78 31 -0.713471 -0.104879 0.692791 
0.021039 0.126367 -0.151279 109 73 37 -0.687381 0.006943 0.726264 
0.027809 0.136789 -0.148412 167 130 101 -0.772302 0.266910 0.576462 
0.016521 0.129177 -0.156223 177 139 103 -0.560102 0.153841 0.814014 
0.030761 0.142940 -0.147557 141 94 48 -0.926238 -0.043356 0.374437 
0.025892 0.134616 -0.151209 156 102 42 -0.827644 0.221827 0.515556 
0.021380 0.132449 -0.153677 136 84 27 -0.527335 0.493853 0.691395 
0.023250 0.127944 -0.148016 109 60 2 -0.816760 0.293156 0.496954 
0.024902 0.126507 -0.144298 147 91 28 -0.598935 0.507830 0.619181 
0.025363 0.125742 -0.143167 156 97 37 -0.589841 0.528998 0.610122 
0.023952 0.125421 -0.144859 152 101 58 -0.956790 -0.212175 0.198831 
0.023951 0.124716 -0.145729 130 86 49 -0.961386 -0.271288 0.046257 
0.029937 0.153872 -0.152242 150 123 104 0.502127 0.730819 0.462355 
0.028357 0.135094 -0.146680 178 136 94 -0.768922 0.319448 0.553816 
0.030935 0.144164 -0.146562 168 124 79 -0.884027 0.061868 0.463324 
0.030786 0.151778 -0.157502 113 92 65 0.835738 -0.054779 -0.546390 
0.030622 0.129519 -0.138656 163 105 42 -0.705013 0.538343 0.461675 
0.033895 0.137733 -0.137411 179 123 60 -0.972492 -0.040065 0.229464 
0.031543 0.152884 -0.155889 66 58 56 0.940290 0.226392 -0.254170 
0.033077 0.132978 -0.138672 153 109 64 -0.900491 0.276505 0.335651 
0.033767 0.133750 -0.137240 159 112 66 -0.950884 0.140032 0.276063 
0.025050 0.126198 -0.150259 108 77 49 0.406668 -0.625770 -0.665607 
0.020524 0.128603 -0.155151 122 89 58 0.515448 -0.433108 -0.739413 
0.020980 0.128976 -0.155118 118 82 56 0.504039 -0.421948 -0.753595 
0.025111 0.125493 -0.148895 93 69 43 0.207306 -0.790835 -0.575851 
0.022833 0.131328 -0.155051 130 88 40 0.448463 -0.474747 -0.757295 
0.022226 0.125905 -0.150455 113 78 38 0.170126 -0.945899 -0.276284 
0.024562 0.124628 -0.146962 127 91 59 -0.718379 -0.685658 -0.117499 
0.024530 0.123786 -0.145193 136 96 61 -0.687818 -0.638804 -0.344726 
0.031508 0.149271 -0.148104 153 121 100 0.409051 0.607780 0.680647 
0.034241 0.137416 -0.136684 174 127 71 -0.513976 0.648789 0.561161 
0.031598 0.137854 -0.144531 145 102 68 -0.843628 0.239511 0.480548 
0.032982 0.139128 -0.141488 154 103 46 -0.968520 -0.022974 0.247873 
0.034402 0.134763 -0.135111 148 94 34 -0.979971 0.078737 0.182912 
0.029167 0.127828 -0.148685 102 88 77 0.499570 -0.593766 -0.630771 
0.021987 0.129647 -0.151302 106 57 14 -0.678512 0.448451 0.581819 
0.024806 0.131895 -0.150876 140 85 29 -0.555716 0.579363 0.596254 
0.030616 0.135964 -0.144932 178 141 114 -0.710063 0.387157 0.588150 
0.033082 0.135890 -0.139919 143 93 42 -0.949512 0.068468 0.306169 
0.030663 0.131505 -0.141177 167 108 40 -0.691310 0.530618 0.490445 
0.028374 0.132515 -0.144658 136 83 13 -0.790304 0.392728 0.470303 
0.025151 0.127399 -0.151532 124 99 66 0.435008 -0.641678 -0.631678 
0.027048 0.131766 -0.148431 127 70 17 -0.817948 0.366885 0.443121 
0.032005 0.149830 -0.148789 77 67 65 0.718567 0.553379 0.421229 
0.018414 0.131250 -0.155977 138 107 78 -0.574964 0.309103 0.757543 
0.030995 0.136334 -0.144704 178 141 114 -0.723980 0.379228 0.576229 
0.032696 0.133202 -0.141208 195 163 125 -0.940731 0.122470 0.316269 
0.034353 0.139796 -0.139271 165 123 85 -0.442803 0.663369 0.603214 
0.024789 0.129587 -0.147355 126 70 11 -0.650015 0.592907 0.475334 
0.032704 0.149800 -0.152384 79 61 57 0.961831 0.265985 -0.064290 
0.027586 0.129911 -0.144570 149 89 27 -0.753514 0.481001 0.448168 
0.029737 0.129397 -0.139416 159 99 37 -0.710425 0.510774 0.484154 
0.037079 0.134651 -0.131275 68 57 53 0.775770 0.567213 0.276496 
-0.034622 0.276340 0.013183 254 226 160 -0.926797 0.360648 -0.104792 
-0.034569 0.275927 0.012143 176 160 124 -0.819942 0.363185 -0.442483 
-0.035461 0.274445 0.014090 98 85 68 -0.922634 0.382555 0.048978 
-0.036286 0.269649 0.013573 227 197 125 -0.946656 0.322186 0.006220 
-0.036156 0.270117 0.012262 251 222 152 -0.962156 0.269404 -0.040969 
-0.035914 0.271629 0.017998 247 209 144 -0.929758 0.367519 -0.021922 
-0.035784 0.272157 0.021407 238 202 142 -0.935777 0.346145 0.067123 
-0.034202 0.277310 0.021158 58 58 56 -0.935364 0.352213 0.032254 
-0.034787 0.275372 0.014992 232 186 109 -0.906318 0.398893 0.139542 
-0.037488 0.268993 0.022808 217 186 122 -0.963798 0.252695 0.085078 
-0.037086 0.267993 0.014660 220 190 120 -0.922027 0.387071 -0.006430 
-0.036295 0.271230 0.016617 137 122 89 -0.957266 0.284524 0.051847 
-0.037372 0.267442 0.016254 242 223 147 -0.950151 0.311788 0.001232 
-0.038366 0.264369 0.018915 69 60 51 -0.939501 0.337491 -0.058637 
-0.036812 0.269818 0.018927 62 61 56 -0.943802 0.327441 -0.044943 
-0.023945 0.293983 0.018088 76 74 77 0.984712 0.082159 -0.153601 
-0.032055 0.278699 0.025973 19 8 12 -0.354307 0.288528 0.889504 
-0.033499 0.278725 0.022274 57 60 67 -0.922831 0.372131 0.099508 
-0.024092 0.291410 0.018344 71 67 58 0.981175 -0.189639 -0.036514 
-0.033428 0.280034 0.020583 222 173 104 -0.957492 0.287865 0.018532 
-0.032109 0.284143 0.021021 26 39 48 -0.916701 0.399521 -0.006465 
-0.031879 0.284637 0.021100 115 98 78 -0.914443 0.404239 0.019623 
-0.030976 0.286696 0.020272 215 188 107 -0.942865 0.332102 0.026721 
-0.034020 0.277275 0.015053 235 187 105 -0.959022 0.281628 0.031016 
-0.030371 0.288844 0.020169 25 36 54 -0.945636 0.323674 0.031733 
-0.029137 0.291663 0.020336 161 137 111 -0.935453 0.336115 0.109339 
-0.030026 0.290008 0.021383 39 46 56 -0.928712 0.343610 0.139376 
-0.029685 0.289178 0.015578 137 132 113 -0.750895 0.484713 -0.448565 
-0.025169 0.290276 0.016737 60 46 43 0.889752 -0.169270 -0.423898 
-0.025287 0.291669 0.015877 51 37 36 0.774804 -0.032342 -0.631374 
-0.028075 0.290948 0.015429 57 61 70 -0.423643 0.404459 -0.810518 
-0.026378 0.293037 0.015758 35 34 39 -0.045888 0.365794 -0.929564 
-0.013979 0.109039 -0.104762 82 59 18 0.962899 0.268630 -0.025759 
-0.014359 0.106056 -0.098291 166 116 47 -0.221036 0.897317 0.382055 
-0.017886 0.122778 -0.111911 85 63 40 0.668692 0.731522 -0.133140 
-0.014273 0.109793 -0.103275 96 68 29 0.906865 0.416155 -0.066422 
-0.013570 0.106852 -0.105435 73 50 16 0.965088 0.218926 -0.143792 
-0.013647 0.106858 -0.105980 63 43 10 0.966428 0.205706 -0.153956 
-0.014623 0.111889 -0.108755 79 55 19 0.985643 0.152639 -0.072178 
-0.021375 0.097461 -0.095168 70 50 52 -0.755341 0.512845 0.407982 
-0.018096 0.110672 -0.102780 83 54 20 -0.536634 0.456887 0.709421 
-0.019460 0.103468 -0.099481 37 16 15 -0.553412 0.587260 0.590645 
-0.015254 0.112823 -0.111578 81 47 20 0.918779 0.068606 -0.388766 
-0.012705 0.107678 -0.100033 136 97 30 -0.064507 0.769784 0.635036 
-0.018049 0.114089 -0.105614 96 61 31 -0.354682 0.536071 0.766047 
-0.021123 0.122204 -0.111952 45 36 29 -0.995149 -0.009683 0.097901 
-0.017376 0.105444 -0.099593 174 121 53 -0.497380 0.678245 0.540922 
-0.018936 0.117413 -0.108102 55 33 12 -0.478480 0.429489 0.765895 
-0.015201 0.110655 -0.111768 74 43 14 0.881180 0.050706 -0.470054 
-0.014374 0.106894 -0.110326 56 30 5 0.943117 0.110720 -0.313483 
-0.016509 0.106436 -0.095655 141 60 59 -0.456379 0.573400 -0.680390 
-0.018681 0.121161 -0.110056 47 33 20 -0.406974 0.511578 0.756743 
-0.021144 0.116319 -0.108396 23 13 4 -0.686436 0.395321 0.610349 
-0.019362 0.106830 -0.101938 12 7 14 -0.460512 0.493524 0.737810 
-0.014775 0.107454 -0.099875 156 105 48 -0.110950 0.693809 0.711561 
-0.018620 0.103757 -0.098759 37 16 15 -0.721467 0.570271 0.392780 
-0.018021 0.116111 -0.106753 72 40 17 -0.365892 0.494840 0.788198 
-0.017895 0.111628 -0.103226 169 125 78 -0.504237 0.480938 0.717247 
-0.022433 0.099255 -0.098141 29 18 24 -0.887412 0.316826 0.334844 
-0.021976 0.102400 -0.100072 20 14 14 -0.786299 0.410173 0.462052 
-0.014155 0.109237 -0.101652 147 105 45 0.196114 0.687171 0.699525 
-0.015150 0.116786 -0.110631 90 60 24 0.980361 0.176149 -0.088682 
-0.019199 0.122364 -0.111367 72 54 34 -0.275790 0.623318 0.731721 
-0.012348 0.108354 -0.096081 84 54 46 -0.316994 0.287506 -0.903801 
-0.020642 0.106230 -0.101859 21 21 21 -0.460487 0.483594 0.744371 
-0.016675 0.114993 -0.105651 128 87 41 -0.121486 0.557665 0.821128 
0.018193 -0.137090 0.023283 86 58 8 -0.975029 -0.221544 -0.015401 
0.018426 -0.135944 0.018259 86 58 8 -0.974982 -0.201934 -0.092914 
0.018637 -0.137167 0.019221 86 58 8 -0.979890 -0.187279 -0.068870 
0.019021 -0.142917 0.022155 83 56 11 -0.998324 -0.051547 0.026299 
0.018000 -0.134563 0.018970 88 60 10 -0.965948 -0.232187 -0.114169 
0.018252 -0.131502 0.007617 192 149 54 -0.985710 -0.152283 -0.072010 
0.018239 -0.130931 0.007848 164 124 39 -0.985215 -0.155311 -0.072320 
0.016826 -0.121253 0.009807 76 47 7 -0.989570 -0.073087 -0.124131 
0.017279 -0.114939 -0.000062 64 43 12 -0.990302 -0.129071 -0.051400 
0.017155 -0.113797 -0.000152 61 38 6 -0.986467 -0.144965 -0.076607 
0.019208 -0.135503 0.006140 186 150 53 -0.968538 -0.211108 -0.131783 
0.018341 -0.132685 0.013489 85 58 5 -0.983436 -0.157302 -0.090058 
0.018662 -0.134367 0.011328 164 128 52 -0.993350 -0.099896 -0.057244 
0.019380 -0.145683 0.013741 185 149 75 -0.988656 -0.135926 -0.063897 
0.019314 -0.145343 0.013965 185 149 75 -0.989745 -0.130199 -0.058763 
0.017271 -0.119003 0.006336 8 0 0 -0.978319 -0.140114 -0.152514 
0.021062 -0.150941 0.024467 87 71 56 -0.728898 -0.381648 0.568377 
0.017022 -0.115844 0.003858 39 21 11 -0.984527 -0.151926 -0.087327 
0.016368 -0.128392 0.017840 85 57 9 -0.986367 -0.138541 -0.088809 
0.018030 -0.130874 0.013361 85 58 5 -0.972708 -0.195551 -0.124900 
0.016558 -0.131449 0.021125 85 57 10 -0.983931 -0.174323 -0.038608 
0.017592 -0.120336 0.006028 8 0 0 -0.974934 -0.152215 -0.162279 
0.018030 -0.128743 0.010863 83 57 6 -0.981682 -0.154874 -0.110973 
0.016995 -0.126675 0.013194 85 52 7 -0.964990 -0.181507 -0.189342 
0.017076 -0.125470 0.011773 79 52 5 -0.977686 -0.138246 -0.158173 
0.020456 -0.152653 0.021495 110 91 76 -0.933537 -0.257673 0.249225 
0.017715 -0.127021 0.005284 135 105 35 -0.997331 -0.048310 0.054751 
0.018993 -0.139085 0.018266 84 57 10 -0.992741 -0.118421 -0.021028 
0.026630 -0.146646 0.003785 149 136 120 0.055689 -0.632566 -0.772502 
0.028151 -0.146849 0.004122 149 136 120 0.092018 -0.655814 -0.749293 
0.027300 -0.146398 0.003674 149 136 120 0.067730 -0.647039 -0.759442 
0.035729 -0.145099 0.005916 81 71 62 0.110606 -0.897450 -0.427024 
0.032707 -0.144578 0.003533 64 54 45 0.155142 -0.781737 -0.604001 
0.037437 -0.146838 0.008583 79 70 61 0.154029 -0.941893 -0.298516 
0.033360 -0.148920 0.007910 117 103 92 0.355166 -0.785866 -0.506233 
0.020676 -0.137782 -0.001600 94 84 75 -0.665915 -0.448950 -0.595819 
0.026526 -0.141340 -0.000621 133 120 111 -0.041098 -0.673162 -0.738352 
0.030356 -0.141812 0.000144 63 50 41 0.041106 -0.735648 -0.676116 
0.023767 -0.138941 -0.002337 103 93 84 -0.175474 -0.624077 -0.761404 
0.024397 -0.140774 -0.001050 89 79 69 -0.082786 -0.634695 -0.768315 
0.031647 -0.139075 -0.003491 60 47 41 -0.107687 -0.736104 -0.668247 
0.030291 -0.139602 -0.002554 57 44 36 -0.073798 -0.730744 -0.678651 
0.027040 -0.139158 -0.002556 103 90 81 -0.092200 -0.689308 -0.718578 
0.026254 -0.139326 -0.002376 103 90 81 -0.095433 -0.673903 -0.732631 
0.021792 -0.132081 -0.007386 37 27 17 -0.482518 -0.522589 -0.702907 
0.029642 -0.135877 -0.006188 51 38 30 -0.179265 -0.687949 -0.703271 
0.028874 -0.135454 -0.006405 50 37 28 -0.182566 -0.676569 -0.713389 
0.029066 -0.134597 -0.007211 50 37 28 -0.186274 -0.669663 -0.718925 
0.029632 -0.127084 -0.013493 57 40 32 -0.267383 -0.586976 -0.764176 
0.024192 -0.125184 -0.013447 53 38 35 -0.325540 -0.546843 -0.771354 
0.019820 -0.110026 -0.017214 102 99 94 -0.842385 -0.066318 -0.534780 
0.030319 -0.127194 -0.013593 57 40 32 -0.259891 -0.590661 -0.763922 
0.027369 -0.123220 -0.015646 54 37 29 -0.296548 -0.543936 -0.784980 
0.027831 -0.127936 -0.012428 57 47 37 -0.277496 -0.588291 -0.759546 
0.028977 -0.130780 -0.010501 58 45 36 -0.219231 -0.626597 -0.747873 
0.034279 -0.139633 -0.003293 38 27 23 -0.094941 -0.763912 -0.638298 
0.038507 -0.142028 -0.000186 23 12 8 -0.082788 -0.874184 -0.478486 
0.021354 -0.128265 -0.009465 100 92 79 -0.580888 -0.496701 -0.644870 
0.021714 -0.125849 -0.011277 63 48 43 -0.576131 -0.495506 -0.650037 
0.023712 -0.118971 -0.017158 40 32 29 -0.329680 -0.432802 -0.839043 
0.021150 -0.109737 -0.019461 26 17 18 -0.793984 -0.360902 -0.489223 
0.029220 -0.147613 0.004918 136 122 109 0.139925 -0.672544 -0.726709 
0.029442 -0.148677 0.005966 150 134 119 0.206720 -0.676116 -0.707202 
0.030073 -0.148535 0.006038 152 136 123 0.244312 -0.691955 -0.679345 
0.019735 -0.123515 -0.011320 142 131 113 -0.760134 -0.400501 -0.511660 
0.027713 -0.119172 -0.018106 52 35 28 -0.353803 -0.534743 -0.767381 
0.027982 -0.120618 -0.017399 54 37 29 -0.325106 -0.530098 -0.783136 
0.025447 -0.119819 -0.017171 56 39 32 -0.322619 -0.467405 -0.823073 
0.024765 -0.134291 -0.006478 60 50 40 -0.233172 -0.630659 -0.740203 
0.023481 -0.132082 -0.007890 63 50 41 -0.345946 -0.586321 -0.732495 
0.025773 -0.128915 -0.011108 62 49 41 -0.291773 -0.588330 -0.754146 
0.024871 -0.128862 -0.010890 65 53 41 -0.324331 -0.576050 -0.750317 
0.031370 -0.137611 -0.004981 58 45 37 -0.162547 -0.721585 -0.672973 
0.027515 -0.137455 -0.004194 71 58 49 -0.139718 -0.689576 -0.710608 
0.021480 -0.140782 -0.000303 38 33 27 -0.381472 -0.551743 -0.741660 
0.022459 -0.111984 -0.019719 38 25 17 -0.670090 -0.446170 -0.593222 
0.021769 -0.142692 0.001050 44 37 29 -0.291821 -0.575668 -0.763837 
0.023849 -0.142899 0.000763 61 50 44 -0.061465 -0.627515 -0.776175 
0.026327 -0.117204 -0.018744 54 35 28 -0.388637 -0.512221 -0.765892 
0.025980 -0.116068 -0.019369 46 36 27 -0.450794 -0.540620 -0.710292 
0.037493 -0.144905 0.006071 88 77 71 0.061766 -0.934379 -0.350885 
0.038013 -0.145218 0.006889 88 77 71 0.063117 -0.949336 -0.307858 
0.036425 -0.142710 0.000771 80 69 63 -0.009511 -0.843735 -0.536675 
0.038573 -0.143476 0.002922 17 6 2 -0.024846 -0.916683 -0.398842 
0.032328 -0.120186 -0.019881 49 32 25 -0.450373 -0.644586 -0.617798 
0.027710 -0.116372 -0.020329 47 28 21 -0.493619 -0.608180 -0.621657 
0.021712 -0.136431 -0.003574 47 39 28 -0.436300 -0.559061 -0.705048 
0.022524 -0.124479 -0.013083 53 38 35 -0.434781 -0.524051 -0.732349 
0.018817 -0.125052 -0.005995 176 142 55 -0.959346 -0.213630 -0.184439 
0.019113 -0.127987 -0.005519 195 173 124 -0.953713 -0.205808 -0.219260 
0.019294 -0.127784 -0.006761 193 177 141 -0.918685 -0.255270 -0.301421 
0.020011 -0.135823 -0.002650 94 84 75 -0.818204 -0.354290 -0.452792 
0.020361 -0.126589 -0.009585 81 73 60 -0.724921 -0.427687 -0.539975 
0.020303 -0.129292 -0.007026 128 118 108 -0.817280 -0.357064 -0.452281 
0.019260 -0.130308 -0.003569 193 164 104 -0.961087 -0.185889 -0.204346 
0.019005 -0.128602 -0.002852 178 139 46 -0.964990 -0.189342 -0.181507 
0.019449 -0.135523 -0.000824 200 185 156 -0.953011 -0.190063 -0.235894 
0.020829 -0.132789 -0.006323 37 27 17 -0.585002 -0.477724 -0.655403 
0.018554 -0.127114 -0.000554 184 150 53 -0.972103 -0.191379 -0.135613 
0.018018 -0.130513 0.004168 188 151 62 -0.979732 -0.176913 -0.093947 
0.018199 -0.128079 0.001562 184 150 53 -0.975346 -0.186078 -0.118640 
0.017779 -0.125683 0.001618 191 154 63 -0.993563 -0.082327 -0.077816 
0.063709 -0.148700 -0.004713 33 18 11 -0.829625 -0.503316 -0.241653 
0.064155 -0.152588 -0.002552 27 12 7 -0.905971 -0.385002 -0.176042 
0.017957 -0.121349 0.001429 21 8 0 -0.999807 -0.019015 0.005004 
0.016171 -0.093339 -0.017760 45 15 5 -0.952686 -0.209456 -0.220266 
0.014520 -0.090353 -0.014342 48 9 10 -0.930432 -0.278141 -0.238608 
0.017573 -0.109987 -0.009107 55 34 7 -0.992600 -0.043742 -0.113280 
0.017407 -0.111887 -0.009555 55 34 7 -0.996710 0.001052 -0.081042 
0.017578 -0.123936 0.001531 136 105 41 -0.999642 -0.023295 -0.013167 
0.022589 -0.144496 0.028966 45 35 23 -0.523000 -0.427310 0.737480 
0.018012 -0.128995 0.007093 155 122 43 -0.994521 -0.098020 0.036345 
0.022842 -0.152204 0.024918 51 41 29 -0.271773 -0.452956 0.849100 
0.018953 -0.140373 0.011835 201 166 66 -0.994927 -0.083188 -0.056568 
0.023295 -0.145690 0.028494 51 41 39 0.001322 -0.466672 0.884429 
0.016865 -0.094156 -0.020887 70 30 18 -0.968699 -0.236238 -0.076246 
0.018821 -0.136036 0.010183 209 167 67 -0.993655 -0.095436 -0.059507 
0.023637 -0.148498 0.027073 49 40 31 -0.088072 -0.462726 0.882116 
0.063763 -0.152703 0.002157 34 20 17 -0.763114 -0.600149 -0.239746 
0.064066 -0.153421 0.001700 35 22 14 -0.827079 -0.515204 -0.224733 
0.064254 -0.153427 -0.001038 27 12 7 -0.902463 -0.390060 -0.182796 
0.018715 -0.135656 0.010832 209 167 67 -0.994226 -0.092408 -0.054554 
0.016536 -0.098646 -0.015261 63 37 22 -0.943964 -0.265189 -0.196487 
0.017062 -0.103401 -0.013630 74 52 31 -0.934248 -0.211501 -0.287138 
0.019962 -0.144030 0.005024 199 176 126 -0.980028 -0.151246 -0.129113 
0.019966 -0.142439 0.002438 132 120 108 -0.894739 -0.305194 -0.326036 
0.019862 -0.146906 0.008302 194 168 117 -0.980744 -0.160396 -0.111420 
0.019752 -0.143288 0.005473 199 176 126 -0.993128 -0.089257 -0.075699 
0.031604 -0.114410 -0.030709 36 23 14 -0.567906 -0.797518 -0.203589 
0.030723 -0.114691 -0.027265 39 26 18 -0.596736 -0.768122 -0.232151 
0.036134 -0.117431 -0.032894 35 20 13 -0.497560 -0.830294 -0.251091 
0.033871 -0.116744 -0.028948 38 25 17 -0.550330 -0.791786 -0.264974 
0.032272 -0.115874 -0.027494 39 24 17 -0.579271 -0.773931 -0.255884 
0.040894 -0.122791 -0.025511 37 22 15 -0.500978 -0.795483 -0.340921 
0.036874 -0.118649 -0.030288 36 23 15 -0.508118 -0.814553 -0.279856 
0.038597 -0.120464 -0.028083 38 24 15 -0.507452 -0.804652 -0.308265 
0.039587 -0.121867 -0.025391 37 22 15 -0.514162 -0.789664 -0.334766 
0.038284 -0.119929 -0.029296 36 23 15 -0.501402 -0.812617 -0.297069 
0.064465 -0.135210 -0.036357 36 22 9 -0.999960 -0.008884 -0.000987 
0.064477 -0.136291 -0.038817 39 25 14 -0.999960 -0.008884 -0.000987 
0.064481 -0.136766 -0.038127 39 25 14 -0.999960 -0.008884 -0.000987 
0.057505 -0.130952 -0.028775 31 18 10 -0.487451 -0.793114 -0.365186 
0.059893 -0.132404 -0.029334 32 19 11 -0.507619 -0.781572 -0.362585 
0.059041 -0.131640 -0.029724 32 19 11 -0.500851 -0.787511 -0.359131 
0.062519 -0.135322 -0.026784 32 17 12 -0.524463 -0.753201 -0.397023 
0.062188 -0.133940 -0.029534 35 18 8 -0.522956 -0.769053 -0.367526 
0.047446 -0.127178 -0.024513 33 18 11 -0.474670 -0.793262 -0.381345 
0.045415 -0.126279 -0.024071 36 21 14 -0.477740 -0.793016 -0.378009 
0.050078 -0.128488 -0.024821 35 20 13 -0.472206 -0.791307 -0.388401 
0.054679 -0.131677 -0.023718 35 21 18 -0.463708 -0.779354 -0.421405 
0.052743 -0.129114 -0.026414 32 18 15 -0.471540 -0.796629 -0.378197 
0.055310 -0.133925 -0.020257 34 19 12 -0.455093 -0.757393 -0.468237 
0.054087 -0.132892 -0.020890 36 21 16 -0.457034 -0.764999 -0.453758 
0.064310 -0.141839 -0.019583 33 19 10 -0.590851 -0.684055 -0.427743 
0.057379 -0.135992 -0.018936 34 20 11 -0.464609 -0.739075 -0.487757 
0.062684 -0.140967 -0.018876 33 18 11 -0.570272 -0.693304 -0.440589 
0.062697 -0.137861 -0.022346 30 20 11 -0.527456 -0.725872 -0.441476 
0.018245 -0.101229 -0.024058 32 19 10 -0.948505 -0.306601 0.079586 
0.046095 -0.124991 -0.027787 35 20 13 -0.478377 -0.808949 -0.341698 
0.046004 -0.124386 -0.029215 35 20 13 -0.476713 -0.815638 -0.327839 
0.037719 -0.118290 -0.033793 35 20 13 -0.477716 -0.840228 -0.256523 
0.045839 -0.124107 -0.029711 36 23 17 -0.474745 -0.818580 -0.323331 
0.045309 -0.125108 -0.026441 34 19 12 -0.481018 -0.803827 -0.349976 
0.040319 -0.120387 -0.031885 34 21 15 -0.477153 -0.831521 -0.284427 
0.044483 -0.122846 -0.031133 36 22 19 -0.474619 -0.825493 -0.305448 
0.046257 -0.124080 -0.030337 36 23 17 -0.474476 -0.821269 -0.316843 
0.050419 -0.123253 -0.036699 31 18 10 -0.485137 -0.777193 -0.400765 
0.053033 -0.124576 -0.036638 33 19 10 -0.484837 -0.765618 -0.422804 
0.051490 -0.124139 -0.035930 30 17 8 -0.483237 -0.776109 -0.405138 
0.051227 -0.126340 -0.030873 32 19 13 -0.474461 -0.803548 -0.359440 
0.040144 -0.118989 -0.034909 33 19 16 -0.482030 -0.828343 -0.285474 
0.050801 -0.124482 -0.034445 30 17 9 -0.482703 -0.786209 -0.385840 
0.052633 -0.127254 -0.030401 32 19 13 -0.473309 -0.800615 -0.367416 
0.046049 -0.123172 -0.032182 34 20 17 -0.477667 -0.818182 -0.320021 
0.044730 -0.122813 -0.031542 36 22 19 -0.475072 -0.826280 -0.302603 
0.051933 -0.124117 -0.036452 30 17 8 -0.484388 -0.771432 -0.412627 
0.036388 -0.129932 -0.013690 51 36 29 -0.276502 -0.660089 -0.698448 
0.038384 -0.130525 -0.013995 47 32 25 -0.290224 -0.681465 -0.671845 
0.035917 -0.129518 -0.013877 51 36 29 -0.279999 -0.654398 -0.702398 
0.054659 -0.125028 -0.037999 33 16 8 -0.496487 -0.755381 -0.427667 
0.058153 -0.126975 -0.039027 29 15 6 -0.521351 -0.745022 -0.416094 
0.063177 -0.130892 -0.038057 39 23 8 -0.548122 -0.744464 -0.381231 
0.061642 -0.130752 -0.036040 40 24 11 -0.535241 -0.756496 -0.375808 
0.064211 -0.130416 -0.040667 36 22 9 -0.563114 -0.727287 -0.392374 
0.058603 -0.128226 -0.036969 34 20 11 -0.517740 -0.756194 -0.400146 
0.058029 -0.127151 -0.038454 35 21 12 -0.517106 -0.750214 -0.412043 
0.056160 -0.134450 -0.020267 34 19 12 -0.458830 -0.754849 -0.468697 
0.060001 -0.134750 -0.024386 33 20 14 -0.502793 -0.755009 -0.420905 
0.059309 -0.134915 -0.023238 34 21 15 -0.493836 -0.753059 -0.434773 
0.064065 -0.137417 -0.024402 28 18 9 -0.533446 -0.731630 -0.424444 
0.060671 -0.136734 -0.021534 34 19 12 -0.497977 -0.736211 -0.458271 
0.060255 -0.136648 -0.021188 34 19 12 -0.494727 -0.736300 -0.461635 
0.059921 -0.130986 -0.032750 34 20 11 -0.515637 -0.774263 -0.366926 
0.056603 -0.127787 -0.034766 35 21 12 -0.499334 -0.769332 -0.398491 
0.055206 -0.127226 -0.033752 32 18 9 -0.486363 -0.775903 -0.401778 
0.059070 -0.130559 -0.032335 33 19 10 -0.508974 -0.777196 -0.370016 
0.055055 -0.127670 -0.032447 32 18 9 -0.482055 -0.780701 -0.397654 
0.059156 -0.130912 -0.031644 33 19 10 -0.504627 -0.781930 -0.365975 
0.056873 -0.127379 -0.036184 35 21 12 -0.504878 -0.763036 -0.403576 
0.063433 -0.143083 -0.016399 31 18 10 -0.562646 -0.702062 -0.436507 
0.063820 -0.145906 -0.010867 38 25 16 -0.472079 -0.766108 -0.436142 
0.062691 -0.142419 -0.016385 31 18 10 -0.549247 -0.708545 -0.443048 
0.062651 -0.142613 -0.015871 29 16 8 -0.539665 -0.715679 -0.443356 
0.059821 -0.139447 -0.017229 31 18 12 -0.513624 -0.719739 -0.467082 
0.043805 -0.125727 -0.023417 37 22 15 -0.470884 -0.784807 -0.402922 
0.051019 -0.131895 -0.019553 35 20 13 -0.452614 -0.752163 -0.478948 
0.045719 -0.126867 -0.023308 36 21 14 -0.475914 -0.788887 -0.388797 
0.043996 -0.125820 -0.023445 37 22 15 -0.471497 -0.785828 -0.400205 
0.039031 -0.142028 -0.000212 23 12 8 -0.093969 -0.882186 -0.461430 
0.038280 -0.140312 -0.003013 30 19 15 -0.149833 -0.823342 -0.547411 
0.044771 -0.141328 -0.003934 45 36 27 -0.240035 -0.839356 -0.487713 
0.042525 -0.141397 -0.002851 22 11 5 -0.192875 -0.850742 -0.488915 
0.042071 -0.140073 -0.004914 32 23 14 -0.230392 -0.805600 -0.545829 
0.038099 -0.137227 -0.007057 24 13 7 -0.199324 -0.746307 -0.635056 
0.045997 -0.140126 -0.005785 64 54 45 -0.270053 -0.816404 -0.510447 
0.043658 -0.138688 -0.006789 57 46 40 -0.252114 -0.787659 -0.562167 
0.037820 -0.134982 -0.009422 56 43 35 -0.202886 -0.704680 -0.679900 
0.062085 -0.149506 0.001012 29 16 10 -0.561446 -0.791623 -0.241064 
0.055181 -0.147689 0.008754 2 1 0 -0.364171 -0.918161 -0.156073 
0.059465 -0.148008 -0.000129 30 19 15 -0.512580 -0.810410 -0.283722 
0.058406 -0.148460 0.004745 22 11 9 -0.464428 -0.861656 -0.204587 
0.053946 -0.146376 0.005154 5 1 0 -0.357709 -0.903763 -0.235066 
0.058437 -0.148611 0.005432 10 2 0 -0.460760 -0.866703 -0.191119 
0.056422 -0.148779 0.011212 91 81 71 -0.377761 -0.920536 -0.099554 
0.054374 -0.146358 0.004016 20 9 7 -0.375580 -0.892187 -0.250881 
0.056632 -0.146692 0.000171 37 23 20 -0.449033 -0.840578 -0.302981 
0.056555 -0.148541 0.009687 2 1 0 -0.389712 -0.912122 -0.127110 
0.055442 -0.146238 0.000793 37 23 20 -0.418025 -0.856103 -0.303878 
0.039994 -0.143944 0.003864 5 1 0 -0.034596 -0.941785 -0.334430 
0.041566 -0.142773 0.000414 15 5 3 -0.115937 -0.903749 -0.412065 
0.041173 -0.145235 0.006447 38 33 30 -0.003564 -0.970485 -0.241136 
0.041944 -0.143394 0.001736 5 1 0 -0.096564 -0.923480 -0.371296 
0.046865 -0.142902 -0.001498 15 6 1 -0.218973 -0.892058 -0.395327 
0.049307 -0.143578 -0.000292 28 17 13 -0.276613 -0.889648 -0.363335 
0.055243 -0.148266 0.011034 91 81 71 -0.349918 -0.929939 -0.113009 
0.051181 -0.145943 0.005714 4 0 0 -0.284274 -0.929195 -0.236188 
0.053310 -0.146636 0.007061 4 3 1 -0.331048 -0.922103 -0.200334 
0.048877 -0.142930 -0.001962 49 40 31 -0.276544 -0.874967 -0.397437 
0.051689 -0.147125 0.008830 4 3 1 -0.274993 -0.946898 -0.166622 
